ncols 378
nrows 32
xllcorner    421114
yllcorner    150428
cellsize     2
NODATA_value -9999
171.725 171.647 171.617 171.575 171.523 171.467 171.475 171.476 171.433 171.352 171.287 171.24 171.343 171.368 171.414 171.39 171.279 171.267 171.407 171.536 171.638 171.716 171.742 171.784 171.899 171.939 171.969 172.009 172.032 171.999 172.08 172.115 172.144 172.075 172.081 172.082 172.079 172.127 172.13 172.109 172.086 172.112 172.177 172.147 172.152 172.13 172.153 172.164 172.185 172.217 172.277 172.351 172.348 172.297 172.311 172.246 172.268 172.257 172.223 172.134 172.15 172.275 172.433 172.757 172.98 173.158 173.31 173.551 173.694 173.886 174.065 174.178 174.338 174.496 174.766 176.039 175.353 176.256 176.794 179.216 180.327 180.363 180.683 181.585 181.748 182.701 181.359 180.649 181.599 183.067 183.116 182.744 180.381 183.4 183.738 181.458 182.06 185.988 186.578 187.366 184.431 183.202 186.098 188.253 189.892 191.958 188.891 191.493 192.337 189.792 191.772 195.174 195.182 194.884 195.53 195.449 191.663 189.78 190.316 190.741 191.384 191.993 192.936 193.668 195.76 197.61 199.797 201.063 202.083 203.988 205.76 207.669 209.561 209.496 208.737 209.396 206.494 208.739 209.535 210.491 210.915 210.182 209.112 205.978 205.535 205.358 206.862 209.912 211.942 210.412 208.831 208.292 208.386 208.638 208.533 208.615 208.766 209.226 209.449 209.678 209.918 210.188 210.331 210.616 210.905 211.113 211.047 211.069 211.623 211.927 212.014 211.848 211.303 210.772 210.835 211.349 212.161 212.999 213.497 215.318 214.783 218.317 218.566 217.43 218.539 219.802 222.506 219.495 216.816 216.727 216.996 217.464 217.76 218.044 218.261 219.125 219.803 221.204 220.764 219.494 220.774 224.316 228.789 227.659 222.331 220.633 221.92 224.444 223.925 221.34 220.641 220.559 220.87 220.652 221.99 225.055 224.976 222.592 223.577 226.33 228.774 228.255 229.384 230.327 232.412 233.732 235.219 237.394 238.632 239.376 239.379 237.978 238.574 238.767 237.429 234.431 230.833 231.261 229.781 227.099 220.519 219.646 219.526 219.38 219.302 219.139 218.994 218.917 218.673 218.707 218.585 218.505 218.871 219.669 221.903 221.057 220.934 218.958 218.804 219.919 221.26 219.931 218.844 221.752 220.778 221.349 220.217 221.039 225.125 223.333 225.878 222.488 222.768 223.648 223.865 223.14 222.145 220.478 219.413 218.532 218.293 218.498 219.903 219.641 218.163 218.251 218.063 218.314 218.8 217.857 217.792 218.62 218.489 220.161 219.312 217.754 218.832 220.358 224.032 225.927 225.33 224.01 222.691 222.137 223.885 225.174 228.307 229.97 230.435 229.69 228.38 223.826 220.099 218.169 218.117 218.118 218.175 219.074 219.165 222.945 225.661 227.067 222.159 220.026 219.458 219.636 220.189 220.691 222.789 220.376 219.225 218.359 217.805 217.181 217.123 217.231 218.05 218.624 219.322 219.826 220.288 220.137 220 219.672 219.114 218.69 218.411 218.094 217.458 217.135 217.351 218.024 218.322 218.43 218.433 218.42 218.447 219.278 219.88 221.961 220.113 218.481 218.411 218.082 217.96 217.765 217.814 218.032 219.332 221.196 230.661 231.908 233.65 231.359 225.97 223.988 222.664 224.656
171.669 171.547 171.497 171.414 171.394 171.338 171.369 171.463 171.373 171.3 171.236 171.233 171.308 171.277 171.265 171.271 171.195 171.15 171.244 171.367 171.532 171.596 171.661 171.721 171.868 171.864 171.884 171.937 171.968 171.972 171.981 171.989 171.961 171.918 171.945 171.982 171.97 171.96 171.988 171.945 171.958 171.954 172.032 172.066 172.005 172.034 172.06 172.031 172.088 172.128 172.172 172.312 172.216 172.157 172.187 172.12 172.058 171.981 172.019 172.003 172.032 172.241 172.505 172.754 172.931 173.079 173.288 173.482 173.642 173.739 173.903 174.061 174.257 174.417 176.321 178.375 176.072 176.21 178.681 179.911 180.692 181.092 179.977 182.346 183.278 184.008 183.914 183.235 183.395 185.782 185.881 184.966 182.907 184.255 185.847 186.759 185.294 186.697 187.19 187.818 185.872 185.302 187.853 190.777 191.449 191.52 191.044 191.255 191.783 192.019 192.971 195.745 196.51 196.564 196.007 196.523 194.245 192.279 191.98 191.676 191.815 192.404 193.299 193.921 195.059 196.397 199.256 200.293 201.957 202.264 203.478 205.896 207.461 207.063 205.366 206.991 207.956 206.043 209.051 210.208 211.672 209.747 207.982 205.817 205.129 205.642 208.634 209.889 210.252 209.247 209.518 209.632 210.869 210.744 209.731 208.973 208.925 209.319 209.447 209.69 209.968 210.282 210.459 210.691 210.961 211.135 211.007 210.898 211.051 211.119 211.561 211.557 211.288 210.974 210.522 210.889 211.572 212.331 216.382 215.961 214.61 219.764 218.336 216.608 218.176 219.748 218.66 217.115 216.506 216.726 217.176 218.55 218.018 217.933 218.164 220.774 220.581 220.203 220.239 219.675 219.961 221.075 223.214 225.012 222.305 222.197 225.665 227.418 223.965 221.81 221.587 220.77 221.6 221.177 220.82 222.373 226.722 223.66 222.794 224.971 226.893 227.397 228.353 229.527 233.748 234.575 234.905 236.853 238.551 238.872 238.716 237.763 237.412 236.668 229.503 226.801 223.961 224.811 222.688 221.33 220.901 220.573 219.415 219.32 219.19 218.9 218.786 218.66 218.643 218.731 218.563 218.402 218.489 219.591 221.249 219.979 219.845 219.676 220.847 219.301 219.028 218.395 218.652 220.454 220.595 220.136 220.999 221.741 223.223 222.263 224.182 222.924 223.742 224.519 224.01 222.515 220.811 220.949 219.971 218.608 218.067 218.267 219.122 219.77 217.995 217.852 217.787 217.707 218.128 220.34 221.346 220.26 219.916 219.825 218.607 217.586 217.703 218.962 224.68 224.364 224.443 223.774 223.404 222.968 223.72 225.427 229.042 231.158 231.308 230.303 228.374 222.611 219.166 218.067 218.033 218.219 219.242 221.267 219.933 224.289 222.257 224.771 222.407 221.068 219.886 219.884 220.057 219.989 221.06 220.321 219.446 219.045 218.124 216.798 217.048 217.761 218.561 219.181 219.777 220.029 219.897 219.875 219.852 219.59 219.209 218.506 218.016 217.489 217.22 217.159 217.441 218.13 218.268 218.286 218.29 218.278 218.244 218.693 219.658 220.704 219.657 218.299 217.672 217.555 217.982 219.252 218.42 217.779 217.592 219.107 223.829 225.239 231.154 232.749 233.257 230.388 230.138 229.775
171.591 171.494 171.394 171.34 171.328 171.267 171.251 171.264 171.247 171.195 171.206 171.134 171.19 171.168 171.17 171.163 171.041 171.014 171.117 171.258 171.397 171.488 171.485 171.606 171.679 171.708 171.76 171.749 171.78 171.828 171.826 171.862 171.85 171.81 171.838 171.842 171.867 171.859 171.889 171.85 171.891 171.865 171.87 171.889 171.826 171.83 171.875 171.888 171.923 171.971 172.092 172.084 172.079 172.046 171.994 171.948 171.899 171.876 171.812 171.829 172.015 172.15 172.472 172.678 172.865 173.018 173.234 173.395 173.54 173.647 173.828 173.987 174.188 174.312 175.574 179.416 177.765 177.544 177.371 179.277 180.034 179.574 178.686 180.274 182.978 184.676 185.434 184.801 184.446 185.819 186.768 186.591 185.678 186.283 187.148 187.892 186.929 186.332 186.928 187.131 187.436 188.194 189.342 190.974 191.382 190.894 191.085 191.874 192.049 192.299 193.445 194.947 195.861 197.466 197.425 197.576 196.342 193.029 192.632 193.031 191.876 192.767 193.409 194.042 194.647 195.666 198.807 199.988 200.721 201.62 204.236 206.23 206.087 203.939 202.579 207.413 209.885 209.929 210.1 211.172 211.884 210.419 208.7 205.244 205.279 206.217 207.93 208.568 207.669 208.128 210.525 211.352 211.707 211.789 211.506 210.687 210.161 209.7 209.598 209.816 209.971 210.35 210.547 210.917 210.998 211.09 211.001 210.91 211.104 211.175 211.342 211.322 210.983 210.92 210.822 210.853 211.195 211.884 213.078 213.256 212.512 216.719 217.597 215.239 215.644 217.553 217.201 216.384 216.585 217.14 217.906 221.19 220.139 218.27 218.999 223.52 224.24 221.175 219.609 219.616 220.631 224.3 226.342 225.795 223.016 223.585 226.506 229.939 224.321 225.324 224.884 223.023 226.442 223.872 220.983 222.073 221.193 221.136 222.222 222.855 223.818 223.802 224.072 230.223 234.396 234.332 233.064 233.671 235.286 234.886 234.758 236.124 235.128 226.895 221.192 221.775 222.711 220.872 219.998 221.102 221.374 222.535 220.648 219.397 218.94 219.028 218.721 219.057 220.123 219.385 219.115 218.598 218.426 219.708 221.804 226.362 227.31 219.768 218.694 218.35 218.267 218.45 218.933 219.836 220.628 221.538 222.663 224.987 222.741 223.702 224.391 224.851 225.472 226.136 225.03 219.811 218.068 219.079 220.864 218.98 218.394 218.385 218.681 218.066 217.92 217.643 218.758 220.126 219.431 220.667 222.589 221.512 220.471 219.211 218.199 217.496 217.366 217.374 219.479 223.145 223.687 224.086 224.077 223.024 223.71 226.673 229.327 231.395 232.122 231.107 226.462 220.067 218.193 218.002 217.849 218.173 220.679 219.041 218.329 218.949 219.567 221.481 221.423 221.763 221.456 220.005 219.868 219.548 218.594 218.661 223.417 225.755 219.866 216.43 217.432 218.489 219.214 219.61 219.938 220.122 219.803 219.743 219.55 219.398 219.308 218.284 217.876 217.105 217.232 217.623 217.869 218.177 218.202 218.167 218.114 218.04 217.998 218.255 219.182 219.89 218.227 217.689 217.409 218.455 220.902 224.526 222.8 218.43 217.85 217.773 218.377 218.626 226.256 232.908 234.835 234.045 233.467 233.039
171.459 171.396 171.318 171.266 171.22 171.215 171.198 171.176 171.132 171.08 171.062 171.049 171.044 171.059 171.052 170.967 170.827 170.898 171.033 171.198 171.312 171.355 171.406 171.471 171.54 171.558 171.612 171.627 171.628 171.677 171.739 171.759 171.786 171.752 171.762 171.708 171.73 171.732 171.72 171.789 171.745 171.767 171.776 171.772 171.745 171.744 171.733 171.77 171.817 171.866 171.964 171.983 171.901 171.848 171.866 171.849 171.798 171.711 171.698 171.768 171.977 172.215 172.431 172.667 172.819 172.977 173.17 173.324 173.437 173.577 173.725 173.842 174.057 174.486 175.273 179.196 180.48 179.921 180.894 180.518 179.873 179.044 177.455 178.494 181.558 183.409 183.31 183.483 183.827 185.288 186.528 187.716 187.614 187.982 188.62 189.013 188.395 186.99 187.489 188.236 187.698 188.771 189.439 190.659 189.761 189.695 190.426 190.943 192.321 192.788 193.3 194.531 194.7 196.379 197.696 197.441 196.671 193.887 192.507 192.22 192.567 193.115 193.741 194.526 195.162 195.862 197.153 199.393 200 201.242 202.862 204.689 203.672 202.648 202.445 208.619 210.23 210.65 210.737 210.842 210.687 209.509 206.409 204.749 205.227 206.228 207.346 208.421 208.313 208.89 210.773 211.847 211.968 212.218 212.405 212.215 210.312 209.783 209.744 209.939 210.116 210.395 210.695 211.013 211.13 211.038 211.034 211.084 211.241 211.385 211.224 210.935 210.525 210.485 210.714 210.76 210.933 210.942 210.971 211.508 212.659 213.957 217.749 217.002 216.314 215.97 216.16 216.288 217.599 222.659 223.788 222.746 218.682 218.458 219.925 225.647 226.085 224.5 220.178 219.674 223.083 227.784 228.203 225.191 223.37 221.898 223.346 224.465 224.903 225.586 227.496 227.488 226.986 224.394 221.061 220.564 220.578 220.906 221.175 223.195 224.235 224.594 224.712 227.412 231.972 231.564 229.488 229.205 230.193 231.093 231.385 232.492 228.375 221.915 223.28 223.241 222.94 222.033 223.031 224.571 224.934 224.347 223.291 220.415 219.546 220.798 218.825 218.887 221.918 223.213 221.322 218.735 218.439 220.326 221.995 225.739 224.373 219.06 218.291 218.364 218.578 218.829 220.782 219.489 220.105 220.382 221.079 220.798 218.988 221.206 222.873 223.683 224.469 225.448 223.838 220.14 217.716 217.984 217.944 218.727 219.67 218.125 217.588 217.863 218.205 218.102 220.152 221.138 218.744 221.279 221.6 221.004 220.047 219.123 218.188 217.814 217.349 217.183 218.306 222.615 223.19 226.944 226.574 224.592 223.731 226.098 228.938 231.04 230.48 229.654 225.416 221.542 218.077 217.759 217.677 217.742 217.956 218.086 217.9 218.22 219.158 219.899 220.075 222.079 222.226 220.255 219.202 218.667 217.886 219.354 226.62 218.879 217.559 216.421 219.412 220.635 220.319 220.332 220.15 219.871 219.619 219.501 219.347 219.193 218.928 217.891 217.516 217.115 218.308 218.623 218.503 218.098 217.973 217.924 217.891 217.878 217.859 217.895 217.823 217.977 217.657 217.389 217.695 220.331 223.041 225.948 226.951 224.247 223.559 224.347 221.943 220.349 227.878 232.566 234.34 234.84 234.646 235.021
171.399 171.289 171.22 171.166 171.146 171.119 171.06 170.978 170.969 170.963 170.937 170.944 170.938 170.919 170.876 170.794 170.735 170.862 170.99 171.189 171.22 171.266 171.333 171.402 171.439 171.434 171.458 171.463 171.478 171.523 171.563 171.604 171.624 171.61 171.669 171.691 171.692 171.668 171.636 171.672 171.609 171.642 171.641 171.631 171.621 171.621 171.653 171.696 171.721 171.725 171.756 171.773 171.747 171.784 171.726 171.657 171.608 171.539 171.586 171.694 171.863 172.205 172.347 172.531 172.64 172.919 173.083 173.252 173.364 173.537 173.643 173.831 174.044 174.539 175.41 177.345 180.334 180.457 181.327 182.405 181.909 180.811 180.182 180.215 181.428 183.306 178.659 179.978 182.632 184.448 185.601 186.453 187.493 188.095 188.524 189.243 188.782 188.009 189.053 189.718 190.167 190.152 189.605 190.003 189.53 187.45 190.253 188.011 192.008 192.535 193.921 195.548 195.234 196.557 197.827 196.926 196.234 193.393 192.771 192.1 193.143 193.154 193.906 194.363 195.221 196.007 196.942 198.048 198.93 200.267 201.473 203.313 203.07 202.371 203.476 206.783 207.983 208.56 209.017 209.836 210.444 206.445 205.15 204.852 206.008 207.65 207.425 208.583 211.337 209.53 210.535 211.474 211.948 212.41 212.372 212.416 211.232 209.974 209.767 210.047 210.211 210.487 210.836 211.074 211.803 211.728 211.211 211.089 211.365 211.482 211.076 213.652 211.167 209.843 210.088 210.336 210.533 210.565 210.722 212.03 218.488 217.209 217.667 217.677 217.061 216.212 216.203 216.399 217.175 222.322 224.308 220.382 218.381 219.313 221.743 226.385 227.202 222.615 219.889 221.314 225.277 228.621 229.506 226.202 221.288 222.22 222.134 223.259 225.548 226.582 226.467 227.056 224.055 221.503 221.928 221.573 221.419 222.219 224.803 227.549 225.462 228.099 228.078 228.524 229.133 229.35 229.159 229.225 229.365 228.474 222.578 221.988 222.881 225.44 226.108 225.913 224.163 223.496 226.091 227.155 227.422 226.086 223.865 221.578 221.22 221.045 218.948 218.66 218.95 219.081 218.833 218.491 218.62 220.351 220.445 219.921 220.291 218.463 218.697 218.659 221.939 221.208 220.38 218.548 219.937 219.577 218.14 218.254 217.842 218.315 219.238 222.78 222.205 222.048 222.268 219.123 217.613 217.641 217.698 218.105 217.984 217.43 217.466 217.389 217.231 217.419 218.12 217.167 217.165 217.954 219.74 220.388 220.186 218.403 218.378 218.722 217.178 217.379 220.513 224.08 225.387 227.994 226.948 225.336 224.366 226.108 227.827 228.444 227.694 222.483 221.172 219.185 220.798 220.649 219.025 217.898 217.768 217.761 217.784 217.941 219.296 220.286 220.554 220.595 221.034 219.873 218.538 217.962 217.425 217.242 216.875 216.12 215.785 217.397 221.294 221.453 221.325 221.217 220.081 219.756 219.573 219.425 219.211 218.755 218.02 217.384 217.515 217.483 218.725 218.873 218.299 217.867 217.78 217.715 217.74 217.735 217.707 217.648 217.528 217.452 217.335 217.202 217.788 221.038 223.4 226.715 227.891 229.339 229.749 231.983 230.172 229.543 229.416 230.419 233.292 233.271 233.38 233.865
171.268 171.175 171.077 171.059 171.036 171.042 170.864 170.84 170.825 170.848 170.821 170.812 170.821 170.797 170.764 170.639 170.653 170.752 170.869 171.051 171.119 171.179 171.217 171.335 171.376 171.354 171.353 171.371 171.381 171.46 171.446 171.474 171.472 171.479 171.441 171.502 171.544 171.539 171.52 171.538 171.548 171.541 171.537 171.532 171.492 171.506 171.569 171.555 171.568 171.616 171.632 171.637 171.635 171.587 171.541 171.507 171.476 171.391 171.439 171.604 171.819 172.107 172.212 172.435 172.528 172.837 172.925 173.115 173.236 173.413 173.573 173.809 173.966 174.267 174.453 175.739 179.262 180.571 181.175 182.369 182.873 181.898 181.164 181.037 182.403 183.282 179.898 179.353 178.455 180.981 184.656 185.509 186.706 187.583 187.987 188.284 188.254 188.452 189.004 189.802 191.09 191.803 191.229 191.458 190.964 190.91 191.641 192.022 192.319 192.409 193.872 195.164 195.243 196.807 196.986 196.116 195.779 192.621 191.779 192.107 192.749 193.5 194.182 194.885 195.602 196.51 198.956 198.735 198.116 199.652 201.049 204.1 204.129 202.199 201.937 203.171 204.698 206.751 207.314 208.15 207.498 205.388 204.751 205 206.107 208.567 209.697 209.908 210.155 209.191 210.581 211.355 211.877 213.4 214.208 212.526 210.239 209.894 209.889 210.118 210.334 210.668 210.862 211.057 212.965 214.378 212.262 212.037 211.831 211.496 212.032 220.555 213.434 210.293 211.036 210.911 211.668 211.687 211.465 211.897 215.121 217.017 217.144 217.538 217.077 216.613 216.458 216.577 216.883 218.215 220.037 218.828 219.347 223.464 226.054 227.442 227.755 226.545 221.621 221.11 224.862 228.289 229.078 229.732 225.998 224.26 224.253 225.116 227.202 225.411 224.341 224.063 222.388 221.114 221.7 221.65 220.567 223.815 229.28 227.846 227.524 227.605 228.658 229.249 229.222 229.754 230.42 231.127 233.714 232.75 226.295 224.279 223.039 226.415 229.917 229.939 227.317 230.783 234.524 231.752 228.41 227.719 225.157 223.513 222.949 222.488 218.995 218.418 218.401 218.349 218.33 218.693 220.278 219.416 217.977 217.77 219.056 222.421 221.002 221.827 222.378 221.547 219.786 217.867 219.245 218.077 217.813 219.428 218.572 217.77 218.599 220.707 219.097 218.833 218.378 217.532 217.271 217.297 217.337 218.417 217.512 218.641 218.063 217.154 216.883 216.696 216.741 217.882 218.167 217.464 218.787 218.534 219.968 219.093 218.776 218.698 217.947 220.277 223.934 225.884 227.096 228.035 227.525 226.641 224.734 225.475 226.878 225.143 220.835 218.74 218.903 223.107 227.062 228.385 225.806 219.279 219.051 218.883 218.945 218.313 219.046 219.806 220.11 219.805 219.858 219.036 218.196 217.441 216.514 215.911 215.716 215.708 216.628 217.953 219.773 220.474 221.042 219.979 220.167 219.742 219.465 219.156 219.025 218.218 217.632 217.212 217.422 221.126 218.016 217.88 217.879 217.867 217.668 217.597 217.529 217.532 217.51 217.462 217.405 217.308 217.164 217.029 217.674 220.981 223.204 226.159 227.488 229.573 230.943 231.803 231.4 231.776 228.064 227.848 229.012 229.956 229.277 230.595
171.145 171.085 170.933 170.903 170.923 170.905 170.805 170.72 170.694 170.712 170.695 170.683 170.664 170.698 170.67 170.592 170.485 170.625 170.799 170.955 171.02 171.085 171.166 171.24 171.277 171.26 171.259 171.26 171.264 171.3 171.333 171.321 171.306 171.361 171.367 171.401 171.382 171.343 171.357 171.38 171.345 171.339 171.386 171.385 171.394 171.428 171.463 171.471 171.455 171.5 171.504 171.492 171.446 171.352 171.343 171.324 171.267 171.305 171.354 171.515 171.76 172.011 172.133 172.384 172.449 172.683 172.818 173.043 173.104 173.338 173.592 173.709 174.01 174.298 174.424 175.71 177.225 178.912 180.974 182.58 181.514 181.378 180.436 181.92 183.884 182.925 181.612 182.786 183.512 183.271 183.967 184.407 185.584 186.505 186.974 187.883 188.142 188.497 189.252 189.937 191.253 191.937 192.444 192.22 191.532 191.907 190.411 191.987 192.379 191.769 193.107 195.026 194.172 195.218 195.34 194.242 192.186 191.804 191.578 192.269 192.934 193.549 194.331 195.293 196.73 198.549 200.634 198.735 198.244 199.031 200.55 202.753 205.688 203.23 201.555 202.135 202.778 207.909 208.523 208.485 207.175 205.224 204.779 205.14 205.859 209.457 212.182 209.898 208.521 208.782 210.18 211.023 211.123 211.921 212.113 211.238 209.727 209.808 210.009 210.255 210.457 210.798 211.088 212.4 213.954 214.81 214.906 214.757 212.146 211.937 213.893 214.384 212.855 213.223 214.857 214.065 214.815 216.934 215.324 213.122 215.246 216.333 216.686 217.112 217.573 216.874 216.595 216.686 216.836 217.249 217.788 218.66 220.073 225.569 227.224 227.902 227.178 227.493 224.18 220.257 224.785 227.948 228.654 227.044 225.992 223.214 225.433 228.458 225.49 222.104 222.123 221.266 221.998 222.014 221.34 221.786 220.486 221.168 222.028 222.909 221.905 226.987 229.603 229.943 230.045 232.894 233.479 235.468 236.992 239.796 239.405 237.694 229.233 228.876 232.432 232.726 228.434 230.737 237.585 236.232 230.91 227.465 226.16 223.859 221.557 220.494 218.697 218.232 218.153 218.104 218.177 218.963 223.392 222.501 220.512 217.951 217.971 221.636 219.666 219.726 219.831 219.574 219.129 217.603 218.285 218.27 218.404 219.089 217.783 217.498 217.41 217.46 217.679 219.302 220.665 218.635 217.574 217.572 219.494 221.742 219.454 220.033 218.078 217.184 216.473 216.514 216.583 219.114 221.05 219.866 217.273 217.07 218.566 219.62 220.188 219.658 219.24 221.093 224.45 226.353 227.305 227.611 226.673 224.918 224.092 223.172 224.489 224.15 223.583 218.405 219.093 220.847 228.77 230.432 230.172 221.748 224.795 227.854 223.375 218.711 217.426 217.263 217.644 218.508 218.264 218.122 217.72 216.434 215.878 215.479 215.428 216.06 217.036 218.192 218.87 219.369 219.552 219.661 220.644 220.826 219.351 218.628 218.152 217.607 217.239 217.726 219.373 219.114 217.96 217.739 217.811 217.914 217.617 217.506 217.409 217.372 217.322 217.23 217.2 217.199 217.079 216.873 217.424 219.094 220.758 224.206 225.297 227.612 229.786 230.245 226.774 226.045 223.681 222.68 222.658 223.594 224.548 228.897
171.105 171.012 170.865 170.793 170.8 170.781 170.725 170.58 170.594 170.571 170.558 170.516 170.511 170.51 170.555 170.494 170.419 170.519 170.791 170.894 170.949 171.021 171.091 171.113 171.166 171.176 171.178 171.179 171.206 171.233 171.24 171.248 171.219 171.24 171.302 171.253 171.255 171.261 171.303 171.301 171.296 171.275 171.277 171.28 171.222 171.308 171.266 171.378 171.354 171.365 171.41 171.354 171.235 171.205 171.245 171.218 171.167 171.134 171.118 171.48 171.67 171.915 172.081 172.313 172.465 172.59 172.78 172.938 173.071 173.293 173.536 174.227 175.802 175.676 176.302 174.885 174.911 178.487 177.118 179.39 180.788 181.395 181.073 181.468 182.931 183.871 183.515 184.911 185.719 184.929 184.247 184.012 184.323 185.709 186.093 186.427 186.655 188.046 188.697 189.17 191.081 192.081 192.429 192.596 193.285 192.49 185.539 188.35 192.135 193.413 193.025 193.878 194.109 194.367 194.698 193.824 191.365 191.235 191.802 192.597 193.247 193.958 194.663 195.371 196.445 200.734 198.981 198.215 198.432 199.399 202.328 203.891 205.754 205.336 202.857 202.666 202.521 204.554 205.817 206.838 206.407 205.117 204.866 205.394 206.57 209.13 211.54 210.405 208.521 208.414 209.998 210.283 209.646 209.464 209.776 209.68 209.671 209.835 210.156 210.321 210.609 210.93 212.843 213.918 215.817 215.276 214.721 215.164 212.305 212.283 212.911 212.722 214.135 215.271 219.129 215.355 214.777 222.243 217.15 214.486 215.246 216.658 218.652 216.949 216.863 216.757 216.663 216.658 216.752 217.262 217.945 218.642 219.493 222.278 226.218 226.951 224.248 222.588 222.968 220.526 225.697 227.848 223.735 224.65 221.962 221.154 225.516 226.946 225.095 221.714 221.129 221.143 222.999 223.225 222.546 222.806 220.809 220.411 220.447 223.435 227.008 229.485 231.492 230.487 230.188 233.61 235.282 237.223 238.632 241.691 242.529 241.797 234.435 231.536 232.618 232.874 231.36 234.506 237.073 237.75 236.042 228.833 227.434 224.653 218.88 218.394 218.321 218.222 218.463 218.772 220.027 219.261 218.66 220.41 220.833 221.447 222.473 218.838 218.998 218.791 218.078 218.063 217.77 217.444 219.16 218.322 217.945 217.534 217.379 217.465 217.307 217.278 217.245 218.347 218.824 218.138 217.758 218.664 224.733 225.279 221.769 220.089 218.236 220.179 217.886 216.609 216.706 218.524 222.418 222.012 221.069 217.363 216.77 219.199 220.604 220.049 218.994 220.182 222.122 225.698 226.456 226.385 223.543 220.235 220.913 219.718 221.011 224.007 226.257 225.524 226.631 226.552 229.174 231.295 228.163 223.186 224.564 226.249 222.4 218.305 217.195 216.784 216.696 217.081 216.758 217.164 216.315 215.493 215.285 215.174 215.578 216.466 217.537 218.948 219.213 219.113 218.918 218.694 219.292 219.133 218.914 218.208 217.691 217.29 217.106 220.683 222.423 220.643 218.769 217.913 217.85 217.632 217.459 217.397 217.348 217.257 217.189 217.07 216.997 217.036 216.955 216.815 216.847 216.946 217.749 219.069 222.039 223.948 227.136 227.283 222.471 222.405 221.286 219.379 217.375 218.575 219.241 226.842
171.073 170.952 170.791 170.688 170.681 170.64 170.5 170.415 170.456 170.407 170.39 170.38 170.391 170.384 170.449 170.361 170.359 170.478 170.764 170.849 170.897 170.927 170.978 171.002 171.058 171.084 171.107 171.12 171.117 171.111 171.136 171.134 171.148 171.166 171.197 171.139 171.135 171.187 171.188 171.174 171.122 171.131 171.139 171.132 171.149 171.165 171.181 171.204 171.255 171.247 171.213 171.176 171.117 171.026 170.994 171.009 170.932 170.81 171.072 171.44 171.618 171.827 171.971 172.149 172.341 172.526 172.721 172.851 173.095 173.24 173.679 175.459 179.924 178.437 179.345 178.506 176.124 175.87 176.975 179.077 178.729 180.561 182.449 181.227 182.467 183.354 183.87 184.914 185.715 185.258 183.686 183.71 185.578 186.036 186.178 186.554 187.103 187.169 187.832 188.584 190.574 192.261 192.675 193.044 193.549 194.111 191.82 187.991 188.546 190.543 190.009 191.549 190.447 191.41 190.471 190.907 190.862 191.329 192.004 192.764 193.309 193.979 194.704 195.503 196.123 198.123 197.431 197.995 198.625 199.386 200.755 202.793 205.399 206.448 203.798 204.056 205.207 206.096 205.441 204.51 204.441 204.782 205.046 205.382 206.426 209.118 211.833 210.566 209.009 208.228 209.253 209.274 208.93 208.972 209.247 209.498 209.757 210.049 210.165 210.395 210.709 211.078 212.31 213.681 217.962 215.748 212.511 212.664 212.567 212.566 212.678 212.916 215.355 216.546 220.672 217.787 215.274 215.533 216.936 218.249 217.905 216.182 216.987 218.134 216.776 216.704 216.687 216.581 216.771 217.218 217.738 218.538 219.222 223.544 226.724 223.177 223.414 222.056 219.833 219.007 221.605 228.033 227.497 228.163 226.715 224.704 226.355 226.881 226.727 224.064 222.485 222.675 223.755 224.946 230.047 228.354 221.525 220.45 220.818 223.1 222.226 229.424 231.805 232.915 232.557 233.7 235.688 237.916 239.722 241.128 242.332 241.855 237.507 235.052 233.399 232.47 232.403 233.6 235.982 235.338 233.791 227.39 226.378 222.375 218.501 218.318 218.183 218.511 219.985 220.128 220.906 221.083 225.272 221.848 219.506 221.636 229.022 220.489 219.965 219.856 219.375 219.461 218.11 219.48 223.08 221.187 222.082 219.21 217.168 217.21 217.141 217.339 216.926 216.845 217.022 217.303 217.337 217.527 219.512 224.841 221.061 220.64 218.828 218.58 218.323 216.733 217.063 220.792 222.989 222.64 221.291 216.734 216.893 220.341 220.937 219.52 218.006 218.043 219.561 222.837 223.339 221.378 217.521 216.551 216.209 216.128 216.316 217.4 223.541 219.406 221.256 218.589 227.649 230.612 228.571 220.785 222.222 221.284 218.73 217.773 217.046 216.419 216.183 216.078 216.029 215.952 215.676 215.249 215.116 215.108 215.822 217.007 218.241 219.92 221.11 218.885 218.527 218.49 218.463 218.467 218.474 217.681 216.893 217.305 219.721 221.974 224.672 224.635 220.441 219.797 219.361 217.803 217.372 217.313 217.222 217.141 217.05 216.935 216.877 216.872 216.846 216.758 216.654 216.522 216.625 216.893 218.224 219.325 224.704 223.482 219.609 220.886 222.479 220.182 218.594 218.706 218.193 223.753
171.009 170.887 170.747 170.619 170.549 170.431 170.392 170.357 170.341 170.303 170.286 170.314 170.306 170.34 170.283 170.122 170.178 170.426 170.604 170.772 170.811 170.86 170.904 170.939 170.926 170.934 170.951 171.017 171.008 170.967 171.022 170.993 170.99 171.065 171.064 171.095 171.064 171.109 171.079 171.058 170.932 170.931 170.926 171.028 171.052 171.045 171.005 171.043 171.097 171.108 171.091 171.091 171.021 170.891 170.849 170.815 170.608 170.95 171.261 171.361 171.534 171.711 171.891 172.122 172.342 172.52 172.663 172.788 173.034 173.247 173.997 177.362 180.393 179.86 182.031 180.87 178.872 175.979 180.842 181.913 181.352 180.77 180.848 178.647 180.265 182.642 183.935 184.88 186.297 186.238 186.122 186.533 186.632 186.846 187.074 187.572 187.769 187.583 188.297 188.495 190.09 190.84 191.351 192.146 192.921 193.834 193.346 192.566 187.317 186.297 186.916 190.168 189.8 188.902 190.125 193.39 191.821 191.589 192.265 192.942 193.695 195.137 197.162 196.862 196.369 196.93 197.539 198.17 198.818 199.435 200.038 201.155 202.871 203.009 202.652 206.332 208.011 209.245 206.382 204.703 204.531 204.87 205.193 205.674 206.924 209.378 210.72 209.397 208.182 209.001 209.377 209.199 208.734 209.033 209.327 209.589 209.855 210.115 210.265 210.543 210.762 210.978 211.456 213.511 215.221 216.206 213.574 212.601 212.852 213.194 213.549 213.644 214.114 215.23 216.517 216.416 215.807 214.917 217.336 220.818 217.69 215.941 216.378 216.567 216.806 216.667 216.522 216.631 216.739 217.269 217.935 219.633 219.854 220.028 223.017 224.17 221.793 220.838 219.588 219.369 224.736 229.969 228.637 229.249 229.658 228.183 224.178 227.473 228.148 226.116 223.921 224.517 224.987 227.706 231.158 229.821 222.955 221.908 222.399 223.189 223.173 227.338 233.216 233.717 234.087 233.26 234.184 237.243 239.612 240.709 241.296 240.953 239.684 238.382 234.539 233.631 230.268 228.354 229.628 230.386 230.687 231.87 226.227 223.069 218.733 218.189 218.145 218.518 218.716 219.083 219.949 220.292 220.116 217.968 217.234 217.92 218.908 218.923 219.71 220.191 220.109 220.485 218.116 217.413 219.275 222.414 222.613 218.578 216.928 216.97 217.035 218.12 217.191 216.699 216.671 217.634 218.738 216.63 216.758 217.332 217.909 218.644 220.005 218.925 217.845 216.846 216.3 218.021 220.629 217.841 217.879 216.232 218.009 221.783 223.168 220.703 217.122 216.419 218.306 218.463 217.045 216.212 216.119 216.111 215.815 215.727 216.119 216.424 217.563 218.525 222.902 225.436 226.205 227.04 223.361 221.206 223.24 222.396 218.382 217.43 216.944 216.283 216.016 215.831 215.627 215.425 215.372 215.11 215.298 215.805 216.576 217.455 218.302 219.562 220.089 218.656 218.23 218.193 218.032 217.866 217.502 217.182 217.11 217.67 219.191 222.351 224.357 223.953 221.558 221.14 220.87 217.872 217.265 217.118 217.061 216.988 216.954 216.856 216.777 216.798 216.781 216.631 216.572 216.472 216.37 216.38 216.609 217.523 219.756 220.703 216.926 219.52 224.261 222.673 220.448 221.105 220.027 217.529
170.969 170.811 170.691 170.544 170.454 170.378 170.342 170.295 170.272 170.201 170.17 170.135 170.215 170.298 170.183 169.968 170.08 170.309 170.476 170.638 170.71 170.751 170.781 170.797 170.811 170.793 170.835 170.893 170.903 170.845 170.886 170.907 170.891 170.895 170.876 170.88 170.904 170.92 170.91 170.958 170.862 170.831 170.831 170.856 170.929 170.901 170.893 170.961 170.92 170.936 170.944 170.884 170.758 170.707 170.709 170.725 170.626 170.93 171.093 171.319 171.426 171.66 171.833 172.151 172.304 172.478 172.595 172.71 172.906 173.188 173.668 177.066 178.543 179.366 181.295 182.468 180.285 177.366 182.342 184.221 183.413 181.901 180.351 179.807 179.617 181.886 182.941 185.6 186.126 186.175 186.079 186.487 186.356 187.675 187.613 187.846 188.38 188.245 189.261 190.022 190.259 190.046 189.87 190.367 192.099 192.759 193.276 189.978 186.272 186.363 188.634 188.639 188.724 188.712 191.327 194.781 192.384 192.297 192.561 193.087 193.88 198.03 199.518 199.935 197.139 197.356 197.867 198.512 199.359 199.622 200.098 201.076 202.323 203.846 204.209 206.879 208.584 208.169 208.588 205.685 204.77 204.84 205.23 205.751 206.613 208.322 208.959 209.398 210.222 211.029 209.206 208.722 208.837 209.167 209.362 209.71 209.907 210.158 210.313 210.65 210.824 210.995 211.658 212.959 215.571 216.824 213.671 212.941 213.168 213.465 213.709 213.895 214.045 214.311 214.634 216.866 217.889 215.497 217.028 220.379 218.559 216.282 216.555 216.956 217.092 216.8 216.493 216.786 217.277 217.82 219.014 225.741 225.496 220.989 220.617 221.123 221.341 220.018 219.394 219.728 224.54 227.912 228.461 228.56 228.874 228.815 228.005 226.956 227.877 227.91 227.588 225.954 226.6 229.198 229.952 230.684 227.042 224.851 221.84 223.637 227.743 229.141 232.327 232.645 232.811 231.156 230.498 234.958 237.88 239.407 240.26 239.606 239.025 238.67 236.092 234.958 230.396 226.531 222.721 227.531 232.329 230.554 230.019 225.528 219.347 218.247 218.302 218.232 218.219 219.05 221.306 222.516 225.157 218.628 216.985 217.012 217.767 218.108 219.442 219.022 218.238 217.525 217.048 217.311 219.016 219.365 218.512 217.098 216.805 216.746 217.087 219.151 217.74 216.721 216.479 216.528 217.192 216.405 216.236 216.215 217.263 219.784 222.323 218.801 222.208 218.776 216.66 216.446 216.772 219.587 216.38 216.416 217.283 222.926 224.197 222.47 218.758 217.082 217.142 216.755 215.938 215.973 215.836 215.558 215.448 215.479 215.865 216.16 217.216 221.404 223.669 224.934 223.562 220.051 220.721 220.406 222.401 223.366 217.715 216.658 216.138 215.793 215.629 215.414 215.343 215.326 215.25 215.234 215.506 216.113 217.157 217.86 218.243 218.232 218.247 218.049 217.653 217.617 217.603 217.641 218.123 218.537 219.111 221.51 222.623 221.905 221.683 223.023 221.504 220.62 219.563 218.124 217.733 216.999 216.896 216.859 216.799 216.774 216.68 216.684 216.655 216.562 216.478 216.395 216.28 216.174 216.265 216.347 216.734 216.841 216.106 217.388 224.66 222.677 220.43 219.952 219.615 216.516
170.844 170.743 170.636 170.493 170.365 170.29 170.244 170.208 170.178 170.075 170.053 170.042 170.106 170.133 170.041 169.975 170.073 170.264 170.466 170.498 170.539 170.608 170.642 170.659 170.682 170.706 170.729 170.768 170.778 170.763 170.776 170.792 170.782 170.806 170.796 170.829 170.802 170.811 170.762 170.805 170.73 170.736 170.763 170.746 170.831 170.775 170.776 170.866 170.828 170.851 170.792 170.716 170.648 170.548 170.539 170.385 170.531 170.931 171.176 171.321 171.442 171.585 171.794 172.062 172.286 172.443 172.532 172.754 172.839 173.148 174.102 177.016 176.913 176.972 176.691 180.449 180.457 179.8 179.806 182.337 182.37 183.096 182.024 181.423 182.427 183.224 184.348 184.736 185.003 185.36 185.767 186.17 186.332 187.294 187.721 188.669 189.216 189.179 190.45 190.841 191.258 191.466 191.179 191.521 187.317 186.449 190.983 189.362 189.087 188.044 190.287 188.752 188.9 189.341 190.201 190.758 191.961 194.558 193.466 193.376 194.914 199.107 200.521 200.786 198.931 199.681 198.713 199.263 199.983 199.922 200.215 201.533 202.859 207.246 206.201 204.02 205.52 206.535 207.41 205.896 204.811 205.02 205.338 205.861 206.346 206.868 207.467 207.726 208.542 210.387 208.898 208.62 208.888 209.249 209.417 209.782 209.914 210.176 210.404 210.788 210.864 211.031 212.422 215.263 215.853 214.491 214.049 213.065 213.5 213.699 214.078 214.1 214.314 214.359 215.494 220.391 218.61 215.498 216.661 218.139 217.229 216.307 216.801 217.324 217.226 216.816 216.557 216.827 219.042 218.848 219.307 223.779 225.822 223.772 221.27 220.156 221.992 220.387 219.59 219.734 222.919 226.393 227.359 227.369 228.421 229.13 228.687 224.336 228.432 227.536 226.141 223.506 227.489 228.383 228.395 229.233 225.925 221.781 221.332 221.143 224.534 228.623 231.462 231.277 231.143 229.35 229.307 233.523 234.906 235.458 237.459 238.98 238.087 237.315 236.117 235.486 227.785 219.978 219.695 221.516 227.42 221.987 219.752 220.741 218.557 220.019 218.827 218.767 218.2 220.165 222.897 224.315 221.709 218.41 219.758 225.669 219.826 219.028 218.2 218.357 217.496 216.884 217.193 223.558 217.246 216.8 216.667 216.672 216.803 216.584 216.806 217.518 217.307 219.497 225.782 217.438 216.315 216.006 215.854 215.832 216.542 223.365 221.217 218.605 216.623 216.55 216.353 216.067 215.979 217.245 216.604 220.183 221.001 222.675 222.911 221.762 218.322 217.364 215.806 215.801 215.526 215.778 215.46 215.461 215.333 215.486 215.798 215.965 216.627 217.96 219.092 218.519 218.323 218.377 218.543 218.172 218.74 217.992 216.891 215.898 215.606 215.262 214.787 214.764 214.775 214.986 215.281 215.356 215.718 216.169 216.993 217.819 218.147 218.022 217.857 217.51 217.38 217.212 217.06 216.759 217.328 219.817 220.832 221.856 222.359 222.02 221.768 221.128 220.698 219.779 219.478 221.38 219.021 216.834 216.747 216.716 216.663 216.651 216.602 216.578 216.558 216.491 216.398 216.29 216.217 216.106 216.085 216.147 216.118 216.06 215.994 217.036 218.828 219.348 218.488 218.234 217.199 217.629
170.839 170.709 170.561 170.413 170.309 170.203 170.154 170.102 170.007 169.944 169.917 169.941 170.008 169.989 169.905 169.892 169.938 170.127 170.321 170.351 170.375 170.466 170.53 170.546 170.593 170.622 170.635 170.682 170.722 170.671 170.66 170.684 170.684 170.699 170.771 170.709 170.709 170.708 170.669 170.692 170.627 170.631 170.614 170.623 170.729 170.635 170.643 170.653 170.614 170.571 170.591 170.564 170.505 170.424 170.319 170.322 170.632 170.926 171.186 171.287 171.427 171.579 171.769 171.975 172.18 172.31 172.487 172.779 172.952 173.229 175.472 176.862 176.429 175.122 175.306 178.465 181.179 180.984 177.914 181.502 182.266 184.072 182.711 182.573 184.13 184.865 185.65 185.758 185.24 185.474 185.558 186.106 186.656 187.487 187.75 188.565 189.379 189.14 189.533 191.149 191.336 192.194 191.603 192.566 191.884 191.431 192.77 194.439 193.658 192.191 192.454 193.267 192.178 190.737 192.887 191.887 192.074 194.312 196.692 194.884 197.42 198.719 201.828 202.037 199.725 199.608 198.657 200.985 202.9 200.474 200.453 201.056 201.794 206.053 206.247 203.404 204.663 208.712 208.776 205.387 205.096 205.111 205.43 205.859 206.377 206.807 207.242 207.529 207.925 208.418 208.447 208.771 209.026 209.414 209.503 209.84 209.991 210.318 210.496 210.827 210.974 211.173 214.022 218.258 216.707 216.095 220.656 215.442 213.534 213.86 214.304 215.141 214.769 214.487 214.939 217.183 216.175 215.696 216.032 216.187 216.28 216.79 217.327 217.623 217.586 217.126 216.643 216.682 217.361 218.327 221.217 221.775 222.1 222.069 221.305 221.094 219.909 219.842 219.534 219.407 221.2 226.552 227.696 228.042 228.754 228.757 225.52 222.64 226.655 224.009 225.777 224.335 228.064 228.73 228.756 229.258 225.228 220.884 221.476 222.302 221.65 226.972 226.962 227.161 228.107 227.746 227.177 231.271 230.244 229.526 234.703 237.727 237.364 236.224 235.123 233.875 224.528 219.392 220.031 218.941 219.263 218.324 218.479 218.369 218.359 219.623 220.69 219.254 218.41 223.269 225.681 224.026 221.312 219.358 219.885 223.2 220.856 223.915 217.747 217.046 219.421 219.991 219.179 222.251 220.132 217.497 216.487 216.502 216.535 216.381 216.538 216.363 216.284 219.548 222.044 217.867 217.264 216.047 215.78 215.978 217.335 220.067 224.212 220.826 216.783 215.849 215.828 215.896 215.675 215.658 215.583 216.847 223.298 222.787 220.604 219.636 217.685 216.908 215.47 215.467 215.375 215.338 215.293 215.308 215.226 215.261 215.729 215.915 216.354 216.788 217.023 217.582 217.827 217.951 217.754 217.388 216.802 216.453 215.711 215.263 214.934 214.499 214.316 214.427 214.709 216.399 215.79 215.606 215.9 216.161 216.706 217.015 217.555 217.34 217.278 217.179 217.047 216.968 216.648 216.721 218.473 220.24 221.414 221.167 221.594 222.132 222.062 221.094 220.505 219.612 218.432 217.944 217.564 216.784 216.571 216.534 216.537 216.549 216.539 216.487 216.444 216.438 216.345 216.226 216.122 216.009 216.001 216.013 215.961 215.923 215.959 216.357 217.481 216.987 217.393 217.713 217.246 222.234
170.783 170.653 170.518 170.359 170.208 170.111 170.031 169.955 169.837 169.766 169.75 169.772 169.798 169.827 169.722 169.671 169.837 170.045 170.191 170.263 170.382 170.407 170.46 170.455 170.511 170.517 170.542 170.587 170.595 170.571 170.593 170.61 170.616 170.628 170.622 170.56 170.602 170.535 170.581 170.527 170.521 170.506 170.521 170.539 170.591 170.592 170.568 170.567 170.543 170.492 170.407 170.347 170.294 170.276 170.136 170.22 170.644 170.891 171.095 171.264 171.425 171.596 171.708 171.934 172.089 172.243 172.412 172.73 173.017 173.055 173.294 173.912 173.983 174.047 174.282 178.115 180.952 181.177 178.213 181.04 182.078 184.742 185.307 183.473 183.575 184.92 185.273 185.751 186.061 186.43 186.373 186.555 186.69 186.682 187.394 188.261 188.75 188.363 186.482 191.239 191.425 192.571 193.116 192.804 192.777 193.2 194.667 194.767 194.77 195.257 194.69 193.801 190.374 191.266 194.868 194.28 191.833 194.462 197.003 194.86 197.098 201.091 203.094 205.211 202.773 200.67 198.646 199.728 201.211 200.552 200.725 201.827 202.904 203.104 204.111 203.701 207.283 209.554 207.745 205.012 205.137 205.344 205.614 206.053 206.563 207.134 207.579 207.841 208.157 208.689 208.711 208.934 209.148 209.463 209.584 209.869 210.087 210.421 210.538 210.876 211.142 212.563 215.543 216.39 216.056 216.573 218.412 215.815 216.121 214.623 217.049 216.594 215.774 214.81 217.296 219.734 216.598 216.145 216.324 216.431 216.745 217.075 217.616 217.684 217.493 216.986 216.679 216.625 217.613 218.444 220.267 220.506 220.193 220.52 222.811 221.657 219.644 220.201 220.102 219.537 220.42 226.219 227.839 228.865 228.574 226.354 225.584 223.561 222.199 222.119 221.903 222.937 226.177 226.168 227.882 225.956 223.012 221.967 221.42 220.776 220.232 220.865 222.338 225.843 227.185 225.913 225.238 229.729 226.026 224.622 224.878 228.779 230.969 232.657 231.634 228.782 223.516 222.486 220.533 219.881 218.424 218.404 218.204 218.457 218.397 219.182 218.896 218.104 218.128 222.39 223.881 221.539 219.505 218.343 218.35 222.005 218.87 217.089 216.826 217.687 229.691 229.637 228.791 228.078 222.431 217.379 216.269 216.403 216.506 216.247 216.291 216.275 216.173 219.386 223.358 222.776 218.267 215.884 215.619 217.592 221.291 222.325 224.14 224.609 224.803 218.057 216.149 216.486 215.554 215.51 215.341 216.135 216.964 220.355 219.326 218.692 216.58 215.294 215.18 215.206 215.126 214.979 215.089 214.987 215.098 215.293 215.803 216.118 216.551 217.182 217.295 217.59 217.461 217.312 216.815 216.269 215.978 215.148 214.75 214.445 214.09 213.982 213.901 214.197 218.979 225.71 220.589 218.027 217.524 216.873 216.426 216.719 216.922 216.845 216.881 216.684 216.412 215.951 215.676 215.949 218.032 220.555 221.503 225.13 221.482 222.071 222.615 221.111 220.53 218.712 216.995 216.821 216.604 216.479 216.444 216.383 216.338 216.382 216.397 216.35 216.296 216.255 216.232 216.058 216.007 215.944 215.942 215.919 215.808 215.763 215.761 216.919 219.779 219.204 222.835 219.949 217.178 224.825
170.724 170.615 170.443 170.271 170.077 169.997 169.791 169.752 169.647 169.608 169.621 169.639 169.731 169.787 169.603 169.471 169.781 169.968 170.11 170.216 170.286 170.279 170.291 170.304 170.33 170.396 170.457 170.495 170.489 170.481 170.537 170.539 170.572 170.594 170.551 170.511 170.515 170.454 170.454 170.442 170.356 170.378 170.339 170.402 170.349 170.42 170.435 170.484 170.425 170.41 170.314 170.297 170.22 170.09 170.142 170.331 170.636 170.869 170.984 171.189 171.46 171.567 171.742 171.913 172.012 172.237 172.361 172.675 172.903 172.983 173.191 173.334 173.559 173.757 174.03 176.463 178.389 176.791 176.277 178.185 178.947 181.464 182.889 183.012 183.205 184.707 184.789 186.148 186.313 186.74 186.91 187.554 188.024 187.659 188.076 188.094 188.086 189.021 189.51 190.143 190.848 191.507 191.933 192.463 193.045 193.656 194.909 195.408 195.766 196.007 195.913 193.814 191.121 192.341 191.292 192.875 192.277 192.885 194.29 194.36 196.089 201.37 204.528 205.391 204.033 200.387 198.477 199.375 200.478 200.894 200.96 201.842 203.174 203.071 203.714 204.401 207.503 207.283 206.974 205.065 205.067 205.408 205.789 206.303 207.137 208.731 208.986 208.468 209.447 210.294 210.103 209.586 209.251 209.483 209.638 209.902 210.122 210.518 210.702 210.91 211.924 215.34 217.232 218.834 218.461 218.418 215.175 215.557 221.735 218.052 219.412 217.251 218.592 215.603 216.412 218.325 217.025 216.193 216.702 216.992 217.239 217.681 217.844 217.699 217.337 216.851 216.894 216.915 217.533 218.569 219.661 220.288 220.031 220.187 220.81 220.713 219.572 220.461 221.352 220.544 219.913 225.924 227.942 228.36 228.894 225.113 221.636 222.886 221.678 221.726 221.123 223.865 222.58 225.803 226.979 222.539 221.528 221.538 220.916 220.169 220.402 220.734 222.876 223.365 224.135 225.679 224.4 224.48 223.897 220.032 219.398 221.597 226.517 228.672 221.775 221.009 222.267 221.822 218.949 218.962 219.241 218.868 218.132 218.475 218.992 220.59 219.775 218.112 217.918 220.586 221.247 218.495 216.918 216.877 216.947 218.724 218.436 216.994 216.712 218.671 223.143 229.13 219.9 222.531 217.609 216.269 216.073 216.174 216.163 215.973 215.984 216.107 216.167 216.875 219.698 222.079 220.607 218.271 216.877 219.84 223.2 223.397 224.143 224.068 223.563 220.765 218.838 217.543 216.524 216.257 216.239 215.281 219.357 222.511 222.661 222.186 220.093 215.556 215.007 215.048 214.965 214.785 214.79 214.856 215.175 215.847 216.34 216.875 217.081 217.368 217.39 216.813 216.456 216.776 216.381 215.967 215.331 214.729 214.012 213.68 213.451 213.692 213.887 214.598 218.52 229.021 222.214 221.544 221.646 217.804 216.551 216.357 216.276 216.149 216.779 216.733 216.035 215.62 215.724 216.024 219.171 220.97 220.733 220.497 220.822 219.269 220.976 220.325 219.291 217.44 216.704 216.33 216.347 216.343 216.328 216.268 216.22 216.249 216.269 216.22 216.174 216.099 216.058 215.963 215.919 215.898 215.882 215.857 215.694 215.639 215.682 216.992 221.311 219.408 217.658 218.581 217.389 218.005
170.635 170.533 170.3 170.143 170.006 169.906 169.781 169.722 169.666 169.559 169.597 169.68 169.73 169.796 169.647 169.545 169.711 169.904 170.019 170.13 170.162 170.161 170.192 170.228 170.251 170.35 170.399 170.4 170.368 170.415 170.37 170.427 170.397 170.465 170.37 170.396 170.484 170.458 170.382 170.352 170.279 170.27 170.283 170.279 170.229 170.283 170.25 170.291 170.268 170.191 170.104 170.081 169.925 169.793 170.026 170.334 170.571 170.802 170.997 171.223 171.491 171.645 171.851 171.962 172.105 172.274 172.392 172.492 172.671 172.885 173.005 173.288 173.399 173.605 173.874 174.563 175.264 174.463 174.819 174.823 175.017 175.778 179.715 180.83 180.862 184.15 184.505 185.958 186.626 186.508 186.24 187.019 188.62 189.474 189.336 188.72 189.73 189.537 189.795 189.651 191.247 190.855 191.022 191.992 193.42 194.089 195.016 196.173 196.93 196.841 197.649 197.307 196.432 197.749 195.174 195.337 192.777 192.805 194.131 197.891 196.535 198.352 202.096 204.1 204.661 200.553 198.633 199.453 203.316 203.327 201.46 201.866 202.601 205.909 205.201 205.22 206.223 205.09 205.138 204.966 205.191 205.449 206.334 207.788 208.33 209.065 209.039 209.733 210.054 210.694 211.303 210.502 209.356 209.504 209.705 210.021 210.2 210.583 210.789 210.994 212.553 215.806 218.856 220.32 218.338 219.666 217.267 220.773 217.308 214.506 215.467 214.787 216.5 215.436 215.444 215.939 215.753 216.022 216.843 217.105 217.509 217.851 218.059 218.193 217.573 217.345 218.582 217.484 217.592 218.189 219.609 220.444 220.097 220.016 221.659 220.347 219.737 220.416 221.163 222.363 222.996 229.076 229.15 227.393 225.835 227.552 225.461 223.01 220.912 228.744 221.24 224.879 222.713 225.199 226.602 225.329 226.994 225.754 225.889 222.159 224.055 221.667 220.853 220.109 220.952 224.507 223.627 221.963 220.386 219.218 219.183 220.983 226.463 225.642 221.631 221 221.379 219.714 218.586 219.028 225.498 220.107 218.509 220.266 220.908 221.634 220.299 218.925 220.823 221.228 219.926 218.22 216.948 216.746 216.646 216.724 216.764 216.717 216.643 216.71 219.504 224.254 225.505 224.349 219.217 216.156 215.909 216.029 215.895 215.682 215.653 215.598 215.644 215.54 217.538 221.326 220.54 221.079 222.264 223.366 224.214 220.18 224.15 222.933 221.737 220.382 219.562 218.126 217.804 219.357 218.137 215.272 218.821 220.257 222.282 222.102 219.456 215.737 214.708 214.719 214.644 214.597 214.717 214.9 215.453 216.728 218.432 217.333 216.993 216.767 216.46 215.967 215.377 215.167 214.874 214.31 213.905 213.8 213.49 213.406 213.385 213.932 214.088 215.122 219.164 223.091 221.385 220.289 219.806 217.547 216.658 216.199 215.917 215.903 218.532 219.01 216.102 215.513 217.812 220.87 221.694 221.267 220.231 219.06 223.092 222.218 219.134 217.381 217.924 216.967 216.196 216.308 216.554 216.829 216.305 216.193 216.112 216.127 216.13 216.081 216.042 215.997 215.946 215.868 215.779 215.72 215.769 215.789 215.594 215.523 215.463 215.795 215.767 216.158 215.72 218.444 220.967 217.381
170.504 170.355 170.201 170.067 169.911 169.825 169.769 169.738 169.672 169.655 169.591 169.637 169.684 169.655 169.549 169.489 169.593 169.798 169.91 170.003 170.041 170.109 170.166 170.173 170.198 170.285 170.328 170.3 170.284 170.287 170.261 170.315 170.33 170.37 170.328 170.327 170.337 170.202 170.158 170.161 170.19 170.166 170.18 170.194 170.229 170.202 170.192 170.185 170.135 170.016 169.924 169.921 169.694 169.576 169.989 170.318 170.609 170.784 171.049 171.27 171.42 171.679 171.814 172.075 172.223 172.376 172.565 172.711 172.776 172.966 173.102 173.192 173.418 173.61 173.82 173.904 174.079 174.357 174.613 174.819 174.996 175.409 177.306 179.307 182.675 183.805 182.554 184.359 184.476 184.02 184.869 187.055 188.606 189.648 189.216 189.123 190.01 189.782 190.346 191.176 190.944 191.664 191.298 190.509 191.63 194.105 195.072 195.644 196.866 196.708 197.655 198.644 197.672 198.801 199.296 198.971 196.356 193.848 193.706 196.271 198.383 198.056 200.066 202.983 204.698 202.031 199.079 199.773 203.167 205.835 204.874 202.567 203.982 204.085 205.483 204.244 205.931 205.004 204.776 204.996 205.223 205.495 206.292 207.755 207.532 207.835 208.803 210.038 210.118 210.62 211.488 210.299 209.628 209.6 209.745 210.017 210.355 210.646 210.832 210.983 211.331 215.523 218.759 217.002 214.928 217.364 219.559 216.85 214.789 215.869 216.091 214.611 214.932 215.16 215.323 215.422 216.258 216.958 216.944 217.089 217.665 217.943 218.096 219.78 220.018 217.757 217.6 217.179 217.345 218.53 219.938 220.493 220.135 219.98 220.021 220.423 220.276 222.232 222.244 223.918 226.446 230.786 230.316 229.126 227.536 228.728 229.579 224.918 220.369 222.676 220.977 222.905 225.204 225.311 225.433 226.421 227.728 227.54 227.164 223.773 224.511 225.339 224.455 222.784 220.502 222.01 220.625 220.375 220.381 219.272 219.632 224.898 226.186 222.371 221.615 221.852 218.964 219.729 220.244 219.988 221.462 220.113 219.338 222.321 223.197 222.921 221.782 219.837 220.767 219.018 217.193 217.07 216.869 216.595 216.437 216.474 216.408 216.291 216.373 216.416 216.318 216.529 216.669 218.529 218.081 215.913 215.75 215.64 215.812 215.569 215.599 215.501 215.477 215.727 216.757 220.558 220.782 219.071 221.36 221.688 222.77 221.688 221.178 218.95 219.182 219.193 219.295 220.336 220.841 220.788 219.618 216.19 215.298 219.035 221.291 220.12 215.479 214.629 214.496 214.513 214.544 214.764 214.956 215.362 215.82 216.598 217.567 216.881 216.516 216.127 215.483 215.323 214.757 214.361 214.193 213.409 213.085 213.102 213.305 215.449 214.204 214.867 215.244 215.989 218.258 221.162 221.402 219.803 218.224 216.982 216.654 216.157 215.756 216.256 218.813 218.03 215.942 215.872 216.868 219.648 221.453 221.241 218.993 218.629 218.757 219.287 216.872 216.31 216.32 215.999 216.124 216.752 219.819 218.527 216.817 216.362 216.042 215.974 215.957 215.895 215.882 215.863 215.844 215.775 215.661 215.585 215.602 215.565 215.525 215.445 215.335 215.276 215.358 215.162 215.494 218.29 219.39 218.281
170.381 170.259 170.178 170.044 169.888 169.795 169.718 169.642 169.555 169.457 169.425 169.473 169.525 169.422 169.179 169.288 169.579 169.706 169.837 169.9 169.971 170.013 170.056 170.09 170.148 170.198 170.236 170.224 170.182 170.192 170.167 170.205 170.29 170.277 170.214 170.256 170.282 170.159 170.231 170.135 170.053 170.027 170.022 169.988 170.006 170.042 170.016 169.989 169.939 169.866 169.818 169.743 169.72 169.748 170.014 170.406 170.59 170.826 171.013 171.259 171.417 171.591 171.722 171.92 172.122 172.387 172.548 172.656 172.849 173.059 173.219 173.301 173.456 173.636 173.809 174.083 174.168 174.44 174.483 174.742 174.895 175.171 175.679 176.987 180.889 182.601 181.702 180.946 183.013 183.202 183.479 186.265 188.437 188.504 188.594 189.363 189.982 189.862 190.549 191.496 187.371 190.925 191.597 191.163 191.814 193.173 193.683 194.633 195.323 195.524 196.892 198.574 198.555 199.355 199.863 199.689 194.897 194.289 194.621 195.056 195.842 196.745 197.141 199.277 198.916 199.047 198.98 199.783 202.543 204.7 203.615 202.933 206.253 205.094 204.282 207.464 208.255 207.308 206.59 205.134 205.383 206.173 207.477 207.747 207.378 207.583 208.578 209.967 209.863 210.062 209.702 209.587 210.388 209.842 209.749 210.127 210.439 210.741 210.933 212.055 212.304 214.396 220.826 221.047 216.528 216.388 217.089 215.927 216.013 215.976 215.073 214.604 214.924 215.27 215.451 215.63 218.037 218.888 216.947 217.056 217.787 217.901 218.1 221.702 221.944 217.466 216.758 216.864 218.359 219.356 220.011 220.529 220.473 220.256 220.256 221.363 221.354 223.03 226.469 225.824 227.05 229.442 229.858 228.564 227.952 227.965 227.382 225.821 223.279 221.29 220.172 221.787 223.181 224.741 225.661 226.842 227.236 224.813 224.414 224.063 228.351 229.638 227.192 225.383 222.743 220.357 219.496 219.608 219.475 219.205 219.087 220.472 221.984 220.917 219.678 218.87 218.491 219.682 229.505 230.275 224.967 219.634 218.279 220.492 224.22 222.847 221.989 220 217.36 216.966 216.841 216.772 216.702 216.528 216.372 216.246 216.162 216.108 215.96 216.05 216.013 215.821 215.732 215.973 216.382 215.893 215.752 215.458 215.385 215.313 215.219 215.216 215.52 215.469 216.212 218.408 217.444 215.551 216.561 215.411 219.568 220.29 219.807 218.554 218.65 218.437 219.479 220.979 221.827 222.341 221.938 221.292 219.03 218.11 216.258 215.889 214.451 214.4 214.397 214.402 214.74 215.066 215.275 215.806 216.244 216.686 220.065 218.02 216.143 215.501 214.892 214.285 213.784 213.55 213.457 213.086 213.162 213.449 215.41 217.619 214.829 215.417 215.856 216.215 216.605 217.224 217.601 217.642 217.114 216.587 216.136 215.926 215.339 216.292 217.812 216.011 216.423 217.373 216.326 216.8 218.92 218.794 219.333 218.952 218.045 216.429 215.949 215.891 216.029 215.815 216.517 217.851 219.094 218.162 217.905 216.666 215.914 215.846 215.794 215.727 215.723 215.742 215.726 215.671 215.525 215.47 215.421 215.393 215.389 215.338 215.242 215.227 215.092 214.973 215.115 215.699 216.308 215.814
170.404 170.276 170.133 169.959 169.823 169.708 169.619 169.544 169.398 169.297 169.313 169.336 169.443 169.401 169.099 169.197 169.503 169.623 169.744 169.826 169.871 169.871 169.9 169.967 170.05 170.084 170.063 170.092 170.06 170.131 170.163 170.128 170.156 170.119 170.07 170.107 170.097 170.157 170.09 170.02 169.957 169.991 169.983 169.952 169.895 169.964 169.899 169.891 169.819 169.701 169.565 169.39 169.432 169.77 170.063 170.456 170.604 170.889 171.05 171.32 171.383 171.561 171.722 171.885 172.086 172.317 172.522 172.55 172.715 173.004 173.128 173.373 173.504 173.73 173.877 174.175 174.241 174.505 174.567 174.799 174.855 175.132 175.285 175.863 175.996 176.734 176.759 177.016 178.544 180.647 181.772 183.856 187.854 187.566 188.036 188.237 189.294 189.411 190.584 191.368 189.722 192.074 193.633 193.008 193.564 194.088 193.174 194.24 195.286 195.598 197.069 197.61 197.328 197.88 199.22 197.81 194.901 199.194 197.484 196.663 197.804 198.58 196.814 197.297 197.878 198.741 199.249 199.777 200.476 203.977 205.837 205.956 207.614 205.224 204.819 207.551 208.102 207.569 205.533 205.045 205.861 207.715 208.694 208.4 207.596 206.98 207.562 209.818 210.583 210.445 209.185 210.018 211.953 210.12 209.88 210.3 210.621 211.055 213.283 217 212.944 216.886 220.503 217.362 221.767 218.06 215.754 216.697 216.026 215.518 215.015 214.685 214.996 215.395 215.48 215.553 215.914 216.11 217.553 217.614 217.181 217.767 218.313 222.926 219.296 216.785 216.639 217.029 220.082 227.152 220.821 220.841 220.77 220.434 220.326 221.774 219.782 219.071 223.362 226.777 225.823 225.162 227.397 225.719 221.151 223.363 225.156 226.61 225.957 222.259 220.125 221.906 222.183 224.689 226.946 227.395 227.638 224.575 223.21 227.482 228.786 229.939 227.158 223.998 224.124 221.231 220.045 219.833 219.361 218.965 218.917 219.124 219.37 220.285 219.151 218.504 218.791 221.751 226.284 224.938 221.638 218.797 218.021 220.234 220.781 218.977 218.77 218.465 217.011 216.792 216.691 216.775 216.692 216.521 216.252 216.12 216.263 216.949 218.142 217.978 218.732 216.441 215.788 215.846 215.82 215.554 215.354 215.29 215.279 215.016 214.973 215.123 215.155 215.104 215.982 218.171 219.73 218.08 218.435 218.956 218.345 218.681 218.561 217.904 218.455 218.874 219.052 221.14 218.522 221.758 220.687 221.512 222.054 220.196 214.49 214.108 213.984 214.154 214.379 214.776 215.285 215.481 215.701 216.02 216.175 216.252 216.365 216.136 214.859 214.363 214.45 213.684 213.103 212.725 212.791 212.91 213.529 214.138 214.93 215.567 215.776 216.13 216.264 216.475 216.649 216.966 216.993 216.769 216.438 216.232 215.612 215.442 215.198 216.014 218.625 217.259 216.559 217.489 217.027 217.488 218.581 217.14 218.946 218.84 220.307 218.088 216.169 215.844 217.349 216.837 218.37 218.535 218.442 216.848 216.234 215.916 215.811 215.727 215.668 215.623 215.566 215.597 215.592 215.539 215.415 215.341 215.293 215.178 215.108 215.129 215.338 215.965 215.565 215.027 214.845 214.798 214.696 214.626
170.45 170.291 170.126 169.957 169.814 169.676 169.527 169.467 169.335 169.249 169.221 169.286 169.34 169.291 169.149 169.204 169.393 169.576 169.642 169.71 169.761 169.792 169.781 169.799 169.881 169.911 169.881 169.918 169.936 169.989 170.035 169.988 170.041 169.982 169.955 169.926 169.976 169.993 169.979 169.833 169.772 169.813 169.816 169.799 169.726 169.751 169.73 169.693 169.637 169.519 169.496 169.398 169.504 169.783 170.079 170.339 170.577 170.747 171.027 171.145 171.338 171.433 171.632 171.773 171.966 172.22 172.478 172.509 172.708 172.945 173.16 173.407 173.411 173.656 173.863 174.047 174.15 174.382 174.625 174.825 174.991 175.245 175.364 175.632 175.826 176.124 176.267 176.575 176.828 178.396 178.441 180.585 183.844 182.468 185.322 186.853 187.926 188.575 190.16 191.391 188.595 192.539 193.602 193.329 193.586 194.721 195.112 195.045 195.787 195.783 197.026 197.19 196.783 197.368 198.29 195.254 196.594 199.726 198.13 196.482 199.316 199.641 197.414 197.399 198.009 200.158 201.456 200.081 200.339 205.275 207.536 206.107 204.822 204.832 204.703 207.127 208.006 206.627 204.926 204.956 205.567 206.38 207.914 208.199 207.315 206.835 207.87 210.784 211.13 211.686 210.968 212.328 212.144 212.049 210.952 210.419 210.727 211.612 217.736 217.76 212.089 216.283 220.407 218.451 217.834 216.755 214.499 214.099 214.056 213.988 214.282 214.425 215.067 215.396 215.189 215.011 215.366 215.955 218.776 217.903 216.753 217.358 217.993 218.231 217.469 216.743 216.574 217.119 218.885 222.957 220.769 221.016 221.247 220.56 220.384 221.633 219.971 221.536 223.144 226.477 223.858 220.063 226.449 227.844 222.495 220.216 224.444 226.581 223.121 220.383 222.456 224.331 224.315 222.733 224.342 226.914 226.614 224.69 226.609 227.695 228.636 230.034 230.228 227.559 224.99 222.806 221.255 221.177 219.542 219.938 219.263 219.174 219.405 219.344 219.304 218.863 220.931 221.459 220.834 218.619 217.989 217.953 218.023 218.033 217.517 217.663 217.746 216.842 216.768 216.73 216.652 216.546 217.731 216.525 216.184 216.046 218.675 224.733 228.743 228.36 227.734 223.081 217.902 215.649 215.559 215.289 215.122 215.128 215.11 214.843 214.97 215.13 214.993 214.893 215.438 218.198 225.102 222.142 218.987 218.706 216.633 215.943 217.079 217.159 216.643 218.353 217.556 219.665 219.253 218.143 217.275 220.82 220.78 219.479 214.139 214.028 214.386 214.648 214.849 215.521 215.9 216.254 216.237 215.968 215.323 215.196 215.262 214.923 214.108 213.755 215.554 216.303 212.49 212.3 212.795 213.222 214.139 214.738 215.194 215.766 216.184 216.438 216.482 216.608 216.587 216.61 216.465 216.31 216.117 215.774 215.328 215.216 214.869 215.473 218.797 217.018 217.983 216.74 217.078 218.397 218.661 219.272 218.939 216.419 218.274 218.212 216.787 215.687 217.827 219.282 219.527 219.566 218.509 217.019 215.855 215.788 215.863 215.811 215.546 215.476 215.397 215.388 215.411 215.393 215.297 215.246 215.156 215.049 214.954 215.006 215.26 217.303 217.823 215.429 214.749 214.619 214.389 214.236
170.424 170.269 170.087 169.952 169.814 169.617 169.445 169.364 169.286 169.267 169.219 169.243 169.254 169.204 169.065 169.085 169.266 169.472 169.546 169.588 169.582 169.645 169.7 169.741 169.765 169.743 169.763 169.777 169.836 169.85 169.906 169.92 169.838 169.808 169.825 169.831 169.819 169.781 169.783 169.715 169.728 169.742 169.705 169.729 169.667 169.691 169.64 169.553 169.443 169.325 169.192 169.187 169.551 169.821 170.147 170.281 170.622 170.786 171.055 171.041 171.326 171.371 171.594 171.695 171.884 172.059 172.517 174.111 174.85 173.742 175.252 174.096 173.495 173.612 173.895 173.943 174.128 174.385 174.584 174.805 174.945 175.173 175.383 175.561 175.771 176.138 176.38 176.701 176.887 177.343 177.522 177.955 178.517 180.228 183.112 185.926 185.994 187.076 188.468 190.311 190.594 192.01 191.824 191.77 192.944 194.992 195.9 195.866 196.852 196.334 197.954 198.061 198.238 197.845 197.723 194.611 193.876 195.784 198.012 198.896 200.067 200.115 197.361 197.495 197.997 200.193 200.95 199.918 200.539 203.312 205.719 204.405 204.023 203.251 206.704 207.954 204.999 205.237 204.839 205.02 205.297 206.051 206.678 207.724 208.443 208.601 209.118 210.947 211.666 210.797 212.813 213.265 212.491 213.146 212.284 210.579 211.574 213.53 217.577 216.943 212.51 215.279 219.72 216.971 215.871 214.478 213.7 213.893 214.145 215.116 215.372 216.166 215.267 215.084 214.779 214.668 215.899 217.705 215.54 215.545 216.056 216.698 217.044 217.257 217.097 217.196 217.469 217.598 218.135 219.189 220.138 220.905 221.404 220.867 220.292 219.833 223.553 225.511 224.968 226.175 224.585 220.149 221.971 226.362 223.663 219.978 225.561 226.422 220.946 223.285 227.555 224.936 222.359 221.589 221.727 225.529 225.768 224.393 228.893 229.333 228.523 228.482 226.019 226.306 225.045 222.638 223.004 220.505 220.773 221.122 220.52 219.18 219.762 220.656 219.207 220.021 219.902 218.746 218.157 218.099 217.804 217.977 217.51 217.649 219.465 219.804 216.914 216.618 216.608 216.601 218.668 222.257 218.917 216.472 215.996 215.931 217.523 225.233 231.752 231.456 230.155 225.915 223.565 218.756 215.245 215.048 214.901 215.165 215.65 214.843 214.808 214.941 214.852 214.682 214.765 215.631 216.352 217.345 217.917 218.817 218.082 216.376 217.128 217.895 215.625 215.514 214.648 216.07 214.355 214.273 214.088 214.923 216.29 215.309 213.53 213.743 215.312 215.585 215.079 215.818 216.195 216.005 215.722 215.288 214.643 214.246 213.888 214.077 212.777 211.971 212.696 212.897 212.274 212.686 213.367 213.928 214.893 215.188 215.595 215.932 216.124 216.129 216.215 216.343 216.204 216.293 215.946 215.587 215.503 215.3 214.973 214.706 214.645 214.907 215.782 216.421 218.483 218.125 219.267 217.157 218.443 222.185 220.01 217.286 220.186 224.374 219.592 216.19 217.758 219.043 219.312 219.453 218.954 217.371 215.836 216.044 216.91 216.941 216.407 215.434 215.249 215.225 215.259 215.241 215.167 215.127 215.044 214.864 214.773 214.816 215.869 218.015 219.148 215.77 215.285 214.75 214.306 214.102
170.351 170.214 170.078 169.871 169.756 169.579 169.43 169.284 169.252 169.184 169.132 169.127 169.158 169.075 168.85 168.976 169.207 169.341 169.42 169.469 169.505 169.586 169.624 169.697 169.681 169.654 169.687 169.724 169.726 169.698 169.658 169.728 169.661 169.703 169.724 169.798 169.781 169.766 169.707 169.668 169.609 169.626 169.637 169.668 169.657 169.603 169.468 169.421 169.261 169.163 168.87 169.05 169.471 169.812 170.08 170.231 170.522 170.687 170.956 171.035 171.237 171.312 171.52 171.688 171.861 172.014 172.688 175.304 178.619 177.684 178.36 177.298 176.405 176.244 176.119 174.427 174.013 174.317 174.51 174.763 174.9 175.133 175.335 175.497 175.884 176.103 176.434 176.706 176.961 177.294 177.544 177.885 178.182 178.837 179.862 181.644 181.027 183.849 185.915 188.68 190.066 189.894 189.671 191.069 191.722 193.202 194.852 195.863 197.15 198.651 199.203 199.322 199.526 198.655 196.48 192.931 193.184 194.439 197.546 197.932 200.308 200.711 198.461 198.622 198.148 199.136 200.229 200.099 200.444 201.525 202.553 203.275 205.119 204.313 205.376 204.9 204.461 204.387 204.796 205.028 205.338 206.231 207.287 208.159 209.255 209.491 209.743 210.905 211.693 214.04 215.259 214.057 213.686 214.628 212.896 210.789 213.449 215.24 218.67 217.761 212.335 212.984 216.058 214.893 214.74 214.999 214.468 215.281 215.776 218.258 218.31 216.02 215.346 214.974 214.541 214.19 214.245 214.345 214.326 214.712 214.866 215.293 215.732 216.911 217.222 219.109 226.946 218.697 217.845 219.096 220.117 221.113 221.463 221.82 221.969 220.232 221.97 227.056 225.601 225.247 222.957 219.943 221.126 222.509 222.063 220.527 224.098 224.52 222.907 225.023 227.173 226.258 226.247 223.779 221.111 223.472 228.056 228.399 228.799 227.333 225.465 224.19 221.276 223.985 227.623 226.996 226.002 223.406 221.85 221.548 220.547 219.604 219.135 220.351 220.728 220.403 218.839 218.04 218.284 219.469 218.087 217.568 217.116 217.74 218.967 220.863 217.005 216.52 216.423 216.575 216.74 219.273 217.452 216.299 215.862 215.727 218.458 229.549 233.173 234.219 227.19 232.176 226.823 222.106 214.841 214.953 214.888 215.253 216.582 214.946 214.696 214.652 214.565 214.549 214.495 214.515 215.003 216.755 217.62 218.759 219.303 218.743 218.339 217.646 215.633 214.202 213.977 214.237 213.899 213.703 213.689 213.488 213.33 213.483 213.589 213.995 215.052 216.183 215.89 216.103 215.693 215.216 214.71 214.196 213.859 213.2 212.406 212.498 211.879 211.561 211.232 211.351 212.107 213.069 214.039 214.635 215.349 215.438 215.522 215.681 215.824 215.778 215.874 215.892 215.695 215.439 215.308 215.023 214.788 214.698 214.4 214.331 214.468 214.616 214.821 215.389 219.065 218.609 217.631 217.562 217.235 219.546 219.297 218.797 228.593 225.65 220.936 215.433 217.108 216.869 219.786 219.745 218.813 217.443 216.069 216.596 217.191 218.908 217.492 215.778 215.163 215.082 215.085 215.043 214.956 214.935 214.904 214.758 214.603 214.721 215.392 217.066 215.736 215.131 218.798 216.534 214.255 214.054
170.273 170.083 169.965 169.722 169.623 169.515 169.334 169.187 169.096 169.068 169.007 169.042 169.033 168.855 168.651 168.875 169.072 169.319 169.375 169.398 169.432 169.501 169.534 169.561 169.558 169.564 169.612 169.684 169.68 169.703 169.636 169.663 169.609 169.575 169.59 169.57 169.526 169.507 169.542 169.565 169.497 169.425 169.47 169.539 169.498 169.519 169.369 169.337 169.2 169.15 168.999 169.13 169.572 169.788 170.029 170.211 170.447 170.691 170.856 170.991 171.147 171.276 171.487 171.642 172.129 172.56 174.355 176.541 177.818 178.975 180.994 180.834 180.169 179.938 177.705 174.789 173.989 174.297 174.444 174.634 174.803 175.107 175.246 175.575 175.855 176.177 176.403 176.728 177.001 177.388 177.755 178.036 178.381 178.657 179.073 179.53 180.242 181.31 183.143 184.456 185.827 185.435 185.321 189.594 191.718 191.45 193.243 195.596 197.067 198.281 199.238 199.499 199.659 199.422 198.397 195.386 194.26 197.977 199.818 200.168 200.328 200.152 200.923 200.107 201.34 199.442 200.289 202.488 200.818 201 201.607 202.437 205.378 207.285 205.963 203.579 204.014 204.366 204.727 205.002 205.436 205.808 206.336 206.957 208.053 207.994 209.065 210.964 212.003 214.339 216.056 213.409 212.636 214.645 213.882 211.416 214.384 217.228 216.307 216.663 212.368 212.02 214.253 215.186 214.15 215.511 216.408 218.16 219.717 220.188 217.725 215.304 215.079 215.061 214.705 214.506 213.909 213.726 213.904 213.897 214.11 214.213 214.737 215.938 216.881 217.684 217.429 217.677 217.351 218.755 220.28 221.195 221.627 222.36 223.025 221.408 221.119 220.924 221.001 222.021 221.716 219.832 221.01 221.679 220.369 221.013 227.682 226.466 226.046 228.201 227.543 226.654 226.416 226.503 225.276 222.761 227.598 229.939 230.215 226.074 223.631 223.763 223.52 229.948 226.143 227.194 226.901 225.593 222.896 221.638 220.123 221.051 218.847 219.249 221.083 221.311 218.81 218.999 218.766 220.625 218.135 217.236 217.026 216.826 217.234 216.937 216.393 216.419 216.365 216.635 216.399 216.246 216.027 215.972 215.735 215.732 218.653 228.978 233.894 234.471 231.963 232.785 221.891 218.106 214.703 214.824 214.808 214.768 214.725 214.548 214.488 214.441 214.79 214.742 214.274 214.14 214.236 215.127 217.659 217.838 219.328 218.792 217.863 216.275 215.375 213.809 213.584 213.473 213.294 213.178 213.157 213.207 213.34 213.587 213.833 214.523 215.44 216.582 215.86 215.674 215.013 214.485 213.791 213.632 212.611 212.11 211.874 211.646 211.081 211.266 211.292 211.74 212.743 213.529 214.412 214.964 215.309 215.416 215.333 215.361 215.292 215.213 215.253 215.273 215.097 214.692 214.825 215.309 214.337 214.248 213.904 214.111 215.019 214.955 215.251 216.127 221.515 217.789 216.412 215.86 215.575 215.854 216.822 217.853 218.182 219.206 216.602 215.381 216.8 217.536 219.679 219.656 218.745 217.575 216.774 217.215 218.365 220.197 219.305 216.589 215.846 215.166 215.106 214.917 214.801 214.745 214.638 214.616 214.427 214.342 214.479 215.139 215.371 215.198 216.782 215.037 214.068 213.895
170.186 170.03 169.835 169.69 169.499 169.388 169.257 169.121 168.972 168.931 168.895 168.93 168.92 168.721 168.561 168.761 168.944 169.189 169.321 169.341 169.352 169.431 169.458 169.465 169.459 169.489 169.516 169.59 169.6 169.575 169.504 169.502 169.452 169.42 169.452 169.488 169.455 169.435 169.456 169.483 169.412 169.256 169.261 169.293 169.281 169.298 169.201 169.004 169.016 169 169.041 169.196 169.523 169.718 170.031 170.19 170.457 170.607 170.814 170.918 171.092 171.209 171.326 171.666 173.629 173.821 176.247 177.796 178.115 178.945 181.004 181.311 181.105 180.458 178.88 177.743 176.425 176.687 174.624 174.63 174.84 175.094 175.256 175.597 175.863 176.265 176.522 176.814 177.055 177.468 177.798 178.168 178.482 178.99 179.304 179.746 180.224 180.745 181.061 181.656 182.501 183.236 183.853 186.716 189.719 190.685 191.775 194.201 196.235 196.551 197.605 198.483 199.224 199.185 199.901 198.281 197.916 198.543 201.436 201.935 201.719 200.89 201.345 201.124 202.404 201.786 201.263 201.652 200.899 201.092 201.591 202.137 205.651 208.075 205.075 203.896 204.124 204.358 204.754 205.047 205.381 205.859 206.193 206.65 207.015 207.232 207.877 209.284 211.598 213.969 215.151 211.395 213.013 216.112 212.59 211.212 212.997 215.517 213.214 212.179 211.744 211.809 212.372 214.173 215.541 216.147 215.866 216.626 219.237 217.792 215.453 215.523 215.173 215.22 215.851 216.583 214.003 213.537 213.376 213.507 213.668 213.925 214.135 214.517 215.094 215.182 215.853 216.38 217.661 219.506 220.329 222.573 222.123 221.234 222.146 221.434 220.718 220.084 220.091 220.652 220.327 219.679 219.794 220.112 220.378 221.151 225.291 226.552 226.389 226.091 226.59 225.854 224.89 225.407 222.566 223.256 227.096 228.735 229.407 227.238 227.997 226.08 225.506 226.915 225.164 227.398 227.489 226.475 224.662 223.484 220.994 220.178 218.792 219.153 219.931 220.716 223.365 226.807 218.851 217.952 217.525 217.214 216.998 216.795 216.615 216.499 216.453 216.349 216.231 217.408 216.323 216.083 215.989 215.911 215.596 215.832 219.495 228.962 234.075 234.811 234.484 233.718 231.214 222.069 215.301 214.662 214.796 214.494 214.359 214.354 214.951 215.095 216.272 215.931 214.083 213.872 213.822 214.383 215.071 215.985 217.807 217.468 215.472 214.184 213.65 213.282 213.343 213.167 213.188 213.035 213.016 213.205 213.481 213.973 214.607 214.972 215.106 215.322 214.825 214.528 214.098 213.096 212.263 212.073 211.32 211.273 211.185 211.15 211.044 211.539 211.79 212.834 213.57 214.443 214.822 214.93 215.031 215.131 215.108 215.214 215.286 215.14 214.995 214.842 214.665 213.924 214.13 217.992 217.058 218.581 216.688 217.281 219.814 221.731 218.868 217.074 216.899 218.74 218.577 218.662 218.039 221.875 222.258 217.422 215.962 215.008 214.79 214.764 214.901 216.284 218.832 219.289 218.784 217.343 216.073 217.943 218.874 221.425 220.501 218.888 216.97 216.038 217.342 217.711 215.588 214.705 214.406 214.383 214.363 214.143 213.913 214.468 216.426 215.725 215.222 214.263 213.645 213.661
170.138 169.981 169.815 169.646 169.466 169.293 169.17 168.974 168.824 168.794 168.773 168.791 168.799 168.646 168.431 168.572 168.827 169.012 169.199 169.26 169.307 169.35 169.372 169.368 169.377 169.398 169.427 169.483 169.521 169.52 169.51 169.445 169.441 169.39 169.376 169.395 169.359 169.37 169.383 169.32 169.321 169.262 169.298 169.304 169.321 169.18 168.943 168.877 168.841 168.886 169.033 169.281 169.53 169.729 169.957 170.233 170.445 170.588 170.75 170.912 171.071 171.222 171.355 173.11 175.239 176.177 177.143 178.02 178.703 179.366 181.065 181.397 181.056 180.367 180.194 180.699 180.508 180.579 178.822 176.773 176.056 175.531 175.373 175.614 175.983 176.4 176.687 177.01 177.271 177.647 177.882 178.204 178.722 179.181 179.529 179.787 180.41 180.824 181.278 181.816 182.377 183.096 183.802 184.65 188.415 188.536 192.859 193.409 194.254 194.682 195.921 195.53 196.527 196.4 198.463 199.098 199.873 200.35 202.923 203.602 204.024 202.56 203.595 202.925 203.921 204.757 203.826 200.788 200.728 201.099 201.627 202.279 204.68 208.081 205.917 204.069 204.201 204.442 204.865 205.107 205.642 205.905 206.349 206.667 207.007 207.262 207.696 208.132 210.73 213.175 213.454 213.049 213.921 215.148 211.919 211.569 216.172 217.979 213.159 212.907 212.123 211.816 212.342 214.297 217.398 216.443 214.68 214.214 214.463 214.524 215.819 218.506 215.569 215.173 216.718 220.049 214.167 213.788 213.49 213.323 213.535 214.326 215.058 214.172 214.387 215.336 216.092 216.981 218.049 219.555 223.426 222.571 220.77 220.366 220.326 220.035 219.943 219.945 221.516 221.08 219.688 219.574 219.547 220.122 221.94 224.783 225.251 225.38 225.292 222.9 224.794 224.222 224.728 224.264 223.021 222.417 225.396 227.579 227.087 222.886 224.801 225.762 222.683 225.057 226.146 227.038 230.276 227.809 224.075 223.181 222.195 219.731 219.846 220.124 218.986 220.86 222.893 221.7 218.777 217.552 217.407 217.195 216.927 216.789 216.52 216.424 216.348 216.262 216.175 216.293 216.208 215.906 215.98 215.727 215.398 215.293 216.76 224.049 230.922 234.05 234.018 234.215 231.416 224.824 216.579 214.351 214.316 214.268 214.196 214.093 217.783 223.994 223.41 215.128 213.903 213.676 213.678 214.445 215.665 215.04 213.768 216.007 214.98 213.344 213.139 213.022 212.88 212.833 213.068 213.365 213.509 213.642 214.082 214.778 214.869 215.029 215.006 214.601 214.048 213.525 212.406 212.094 211.347 211.362 210.788 210.859 210.941 211.172 211.448 212.11 212.942 213.572 214.304 214.792 214.873 214.972 214.897 214.665 214.915 214.924 215.203 214.597 214.185 214.092 213.847 213.377 213.899 216.803 219.723 220.58 216.928 219.563 219.674 217.749 219.085 218.714 218.261 218.846 219.188 221.195 221.326 217.907 219.87 219.862 217.993 216.736 215.364 214.526 214.55 214.683 217.149 218.853 219.142 217.886 217.161 219.257 219.418 220.895 220.149 218.237 217.089 216.082 218.791 219.522 216.303 215.405 214.348 214.206 214.213 214.037 213.885 213.835 214.001 214.23 214.238 213.718 213.637 213.611
170.083 169.89 169.743 169.62 169.417 169.258 169.062 168.927 168.804 168.713 168.646 168.636 168.618 168.525 168.389 168.516 168.779 168.919 169.102 169.16 169.216 169.239 169.271 169.25 169.233 169.283 169.32 169.38 169.437 169.433 169.41 169.373 169.354 169.369 169.355 169.345 169.341 169.226 169.243 169.213 169.131 169.113 169.115 169.094 169.047 169 168.818 168.726 168.683 168.709 168.984 169.255 169.517 169.743 169.988 170.225 170.366 170.569 170.62 170.812 170.962 171.138 172.078 175.372 176.86 177.077 177.92 177.736 177.286 178.086 179.506 180.645 180.409 180.599 181.163 181.653 182.019 182.336 182.641 181.939 180.513 179.757 178.387 176.934 176.49 176.864 176.841 177.135 177.355 177.861 178.11 178.78 179.011 179.523 179.86 180.346 180.794 181.188 181.749 182.028 182.53 183.104 183.8 184.304 185.456 186.748 188.806 188.43 190.097 189.87 191.204 191.846 191.976 192.349 193.911 196.035 198.92 200.452 202.008 203.092 204.55 204.275 206.596 205.971 205.565 207.719 206.161 202.03 201.35 201.279 203.005 203.842 205.828 206.513 205.307 204.158 204.099 204.539 204.811 205.199 205.637 206.024 206.41 206.767 207.013 207.361 207.8 208.346 210.566 213.275 213.492 213.28 213.23 211.45 211.066 214.544 216.373 215.843 215.011 214.985 212.794 211.917 212.124 214.818 217.855 215.878 216.656 214.429 214.031 214.168 214.891 215.599 215.78 215.273 216.695 214.523 214.272 214.238 213.728 213.26 213.185 213.831 214.657 214.713 214.953 215.846 216.543 218.059 221.296 220.235 220.611 220.468 219.889 220.17 220.436 220.72 220.585 222.26 224.715 223.488 220.032 219.622 219.598 220.997 228.424 228.437 225.785 222.875 224.611 224.14 226.216 223.135 227.267 226.038 224.189 224.472 226.166 226.372 224.873 223.167 224.046 223.573 224.102 224.944 224.788 224.606 225.017 225.973 224.333 224.231 223.254 222.797 221.875 219.645 219.141 224.405 222.198 219.15 217.514 217.462 217.315 217.172 216.987 216.814 216.604 216.356 216.301 216.267 216.129 216.275 216.069 215.931 215.676 217.105 215.246 215.048 215.891 219.208 224.761 228.794 231.407 232.72 229.425 222.364 216.277 214.146 214.238 214.271 214.133 214.067 214.732 214.963 214.734 213.711 213.754 214.328 217.719 218.796 218.099 221.689 218.199 214.293 213.237 212.832 212.665 212.604 212.661 212.788 213.219 214.421 213.915 214.341 214.722 214.814 214.795 214.73 214.29 213.89 213.161 212.238 211.397 211.052 210.585 210.249 210.107 210.428 211.024 211.868 212.269 213.053 213.459 213.919 214.429 214.553 214.592 214.617 214.487 214.486 214.627 214.692 214.415 213.837 213.861 213.515 212.834 213.273 217.141 220.088 220.779 220.381 217.761 218.089 215.923 216.922 218.808 220.97 220.131 218.415 215.918 218.996 219.991 216.094 216.973 219.529 219.051 222.289 217.201 215.391 214.753 216.476 217.368 218.691 218.678 217.431 216.854 216.599 219.559 221.643 220.095 218.7 218.633 218.272 219.425 218.716 218.064 217.165 215.204 214.34 213.978 213.85 213.725 213.523 213.496 213.494 213.476 213.35 213.949 214.222
170.009 169.837 169.665 169.545 169.356 169.191 169.015 168.909 168.755 168.663 168.569 168.516 168.544 168.476 168.38 168.466 168.724 168.813 168.955 169.012 169.052 169.043 169.084 169.084 169.133 169.163 169.201 169.276 169.358 169.326 169.323 169.265 169.285 169.281 169.285 169.267 169.216 169.181 169.154 169.116 169.051 169.023 169.038 168.929 168.888 168.661 168.621 168.55 168.514 168.532 168.911 169.256 169.444 169.696 169.979 170.144 170.319 170.495 170.585 170.723 170.914 171.119 172.303 176.349 174.815 177.371 178.297 178.287 175.474 176.813 180.019 180.862 181.034 181.356 181.35 180.904 181.884 182.782 183.016 182.079 182.309 183.22 183.528 181.712 180.811 177.656 179.976 177.392 177.43 177.982 178.822 179.421 180.465 179.894 180.059 180.508 181.012 181.621 182.072 182.39 182.994 183.569 183.998 184.733 185.382 186.099 186.72 187.552 188.367 189.357 189.999 191.002 191.53 192.481 193.11 194.773 196.308 199.121 199.76 200.228 201.24 204.576 207.223 203.131 206.111 208.52 206.874 204.985 202.35 203.745 206.033 207.889 207.255 204.921 204.343 203.785 204.242 204.624 204.939 205.204 205.7 206.116 206.476 206.825 207.131 207.959 208.437 209.543 211.865 213.065 213.433 212.891 211.381 210.841 212.624 212.959 213.715 212.709 213.955 214.976 213.608 212.176 212.303 214.915 217.17 218.701 218.961 214.598 213.989 214.424 216.411 218.7 217.849 221.888 221.352 215.587 214.555 214.791 214.314 213.851 213.109 213.607 214.733 215.057 216.109 216.35 216.689 217.333 219.159 219.193 219.604 219.883 220.01 220.281 220.669 221.634 221.472 221.865 223.358 221.641 219.643 219.699 219.806 220.319 224.03 224.077 222.364 221.228 222.545 222.188 226.92 225.975 225.898 225.185 225.175 225.565 225.8 225.103 222.469 222.896 224.255 224.235 224.761 224.792 224.01 223.062 222.892 222.907 223.439 223.291 221.957 221.994 222.141 219.739 218.887 220.962 218.841 217.86 217.572 217.426 217.204 217.175 217.006 217.048 217.208 216.406 216.216 216.1 216.047 215.906 216.181 218.069 217.637 220.669 215.375 214.892 214.819 215.037 221.871 226.552 227.224 230.129 225.81 223.726 215.623 213.991 214.024 214.007 213.944 213.838 213.656 213.622 213.474 213.285 213.516 216.189 222.164 226.689 218.311 219.164 216.64 214.045 212.544 212.56 212.46 212.578 212.675 212.869 213.524 213.957 214.604 215.899 215.103 214.473 214.093 213.642 213.221 212.274 211.606 211.033 210.464 210.184 210.189 210.472 210.18 210.621 211.385 212.123 212.888 213.561 214 214.204 214.276 214.321 214.255 214.256 214.233 214.222 214.215 214.018 213.749 213.365 214.792 215.22 213.521 214.474 217.716 223.079 223.751 221.785 217.585 217.285 216.546 216.558 217.54 218.774 219.448 218.075 218.08 218.411 219.324 214.702 214.427 214.945 216.47 217.798 221.769 215.54 214.909 217.204 217.679 218.113 218.092 217.519 218.266 220.049 221.457 222.242 220.374 218.586 218.711 218.821 219.121 218.594 217.815 218.838 219.225 215.126 213.945 213.689 213.605 213.471 213.358 213.18 213.07 213.101 214.429 215.615
169.97 169.811 169.643 169.484 169.284 169.162 168.964 168.826 168.674 168.553 168.487 168.447 168.443 168.364 168.33 168.391 168.581 168.702 168.77 168.872 168.88 168.92 168.926 168.987 169.051 169.065 169.117 169.145 169.176 169.125 169.129 169.114 169.167 169.138 169.147 169.153 169.127 169.075 169.056 168.966 168.948 168.895 168.894 168.879 168.771 168.609 168.542 168.456 168.511 168.59 168.994 169.109 169.357 169.602 169.844 170.017 170.188 170.367 170.551 170.683 170.887 171.074 171.835 173.288 172.173 176.585 177.564 176.577 175.925 178.274 179.248 180.531 181.602 180.921 181.116 181.225 181.893 182.907 183.409 183.077 183.511 183.648 182.999 183.419 184.508 184.423 185.097 181.667 180.107 179.953 183.956 183.289 183.349 180.565 180.383 180.901 181.3 182.072 182.543 183.066 183.357 183.864 184.432 185.048 185.776 186.275 187.092 187.667 188.344 189.12 189.944 191.049 191.426 192.68 193.315 194.051 194.6 197.949 198.135 198.792 199.879 203.436 205.984 206.491 208.2 208.519 207.424 204.737 204.031 206.85 208.142 208.883 207.578 204.535 204.334 203.836 204.323 204.729 205 205.249 205.998 206.278 206.685 207.1 208.027 209.435 210.104 210.948 212.279 213.363 212.941 212.301 211.039 211.405 215.799 215.818 215.5 214.934 213.942 214.973 216.872 214.334 212.518 214.297 216.264 217.964 216.022 213.855 214.326 215.569 217.798 218.544 217.981 219.701 217.117 216.647 216.06 215.674 215.395 214.844 214.379 214.469 215.789 215.883 216.94 217.047 216.883 217.287 218.038 218.702 219.738 220.403 220.565 220.476 220.463 220.643 220.073 220.455 221.305 220.281 219.705 219.727 219.961 220.244 220.376 220.499 220.426 220.346 220.491 220.65 222.535 223.638 223.187 222.494 223.939 225.028 224.453 224.369 223.593 221.978 221.841 224.303 224.595 224.593 222.937 223.247 224.431 221.904 222.461 221.624 219.443 220.159 220.825 219.179 218.214 218.626 218.877 217.884 217.606 217.353 217.157 217.021 216.869 217.414 217.213 216.399 216.206 216.096 215.977 215.798 215.676 215.826 215.464 215.289 214.943 214.713 214.69 215.533 216.38 221.824 216.212 216.513 214.988 215.16 214.216 213.751 213.712 213.763 213.683 213.557 213.476 213.545 213.194 212.981 212.93 213.27 219.101 223.643 216.336 214.58 213.535 212.354 212.349 212.417 212.534 212.876 213.488 213.757 214.179 214.384 214.624 214.577 214.403 213.904 213.283 212.928 212.227 211.72 211.134 210.572 210.314 210.084 210.338 210.835 211.749 212.269 212.854 213.509 213.548 213.756 214.017 214.094 214.184 214.205 214.108 214.382 214.979 214.194 213.65 213.363 213.079 213.131 216.437 218.599 219.905 222.909 222.109 227.979 227.885 224.403 219.065 217.424 215.586 215.846 216.324 216.486 216.12 216.313 216.9 215.023 214.977 214.214 213.948 214.122 216.592 218.349 217.484 214.607 217.049 219.02 217.962 217.249 217.051 216.995 217.558 218.648 219.989 219.664 219.897 219.647 218.665 218.906 219.721 219.57 218.013 217.809 219.072 216.016 213.704 213.505 213.428 213.345 213.266 213.184 212.909 212.726 213.158 213.149
169.942 169.779 169.606 169.411 169.248 169.042 168.899 168.743 168.606 168.463 168.385 168.325 168.304 168.237 168.188 168.243 168.453 168.57 168.668 168.713 168.765 168.808 168.853 168.887 168.903 168.955 168.985 168.998 168.95 168.972 168.919 168.914 168.978 168.971 168.993 168.898 168.914 168.896 168.891 168.827 168.844 168.825 168.779 168.769 168.577 168.485 168.367 168.235 168.467 168.773 168.906 169.136 169.327 169.569 169.824 170.03 170.131 170.314 170.408 170.646 170.843 170.993 171.397 173.591 174.219 175.081 174.604 172.708 176.136 179.736 180.42 181.06 181.02 180.555 180.782 181.189 181.315 182.346 183.45 182.602 183.278 183.522 182.849 182.946 184.012 183.846 184.238 185.404 185.235 185.303 186.659 186.193 183.551 180.945 180.63 181.21 181.725 182.406 182.9 183.345 183.923 184.463 184.936 185.599 186.094 186.75 187.315 187.818 188.512 189.047 190.098 190.865 191.7 192.366 193.353 194.144 194.669 195.828 196.421 197.44 198.801 202.416 204.22 204.453 206.75 208.421 205.466 202.837 204.246 207.974 210.016 210.583 209.885 207.221 204.862 204.133 204.452 204.699 205.16 205.683 206.247 206.434 206.576 207.816 209.596 210.769 211.4 213.678 214.125 212.973 212.476 212.171 210.945 211.159 215.394 216.886 217.051 216.373 215.954 217.83 221.312 214.859 212.364 213.615 214.041 213.98 213.716 214.231 215.486 217.754 218.329 219.037 218.965 217.201 219.195 218.969 217.942 216.262 216.295 215.703 215.915 216.306 216.543 217.081 217.506 217.291 216.938 217.244 217.851 218.796 219.613 220.657 221.175 221.14 220.892 220.607 220.133 221.304 221.628 222.758 220.05 219.862 220.032 220.147 220.462 220.776 221.156 221.293 220.549 220.266 220.356 220.582 220.796 222.26 224.176 226.17 225.925 224.553 223.758 221.49 221.768 223.817 223.645 224.005 223.668 225.952 226.001 225.773 226.286 223.685 219.94 221.245 221.531 218.553 218.032 218.003 219.532 218.597 217.748 217.353 217.157 217.018 216.807 220.568 221.606 217.107 216.197 216.107 216.017 215.749 215.558 215.332 215.097 214.905 214.673 214.602 214.462 214.324 214.25 214.018 213.958 214.06 214.149 214.007 213.721 213.599 213.569 213.384 213.341 213.256 212.989 213.034 212.804 212.668 212.596 212.674 218.201 219.547 215.967 212.701 212.656 212.53 212.539 212.628 212.895 213.164 213.693 213.978 214.215 214.14 213.942 213.662 214.255 213.105 212.177 211.376 211.038 210.473 210.163 209.942 210.161 210.391 211.009 211.795 212.334 213.095 213.573 213.89 213.944 213.882 213.744 213.729 213.522 213.668 213.763 214.987 220.046 215.323 213.389 212.99 212.76 213.878 219.824 224.535 224.646 224.917 224.793 229.424 230.592 228.796 219.921 217.993 214.184 214.327 214.85 214.963 214.934 215.1 215.734 213.537 213.618 214.261 215.556 214.563 218.291 219.193 218.346 218.238 219.121 219.113 218.315 217.254 216.492 216.573 217.165 217.877 218.695 219.407 219.976 220.854 219.494 218.818 220.807 220.843 219.238 216.35 215.049 213.936 213.481 213.279 213.162 213.096 213.013 213.072 212.874 212.727 212.554 212.534
169.897 169.729 169.583 169.359 169.202 168.972 168.832 168.69 168.528 168.364 168.292 168.227 168.126 167.982 167.779 168.1 168.281 168.463 168.511 168.584 168.588 168.677 168.777 168.797 168.794 168.807 168.868 168.871 168.877 168.859 168.845 168.885 168.889 168.851 168.854 168.804 168.741 168.724 168.719 168.66 168.735 168.612 168.591 168.586 168.439 168.2 168.08 168.168 168.398 168.74 168.885 169.104 169.329 169.573 169.717 169.959 170.131 170.278 170.442 170.678 171.08 171.874 173.057 175.458 177.066 177.833 174.255 172.765 176.845 179.44 180.806 180.881 180.691 180.058 180.774 181.326 181.493 181.808 182.32 182.164 182.866 184.05 183.467 183.32 181.621 183.069 185.309 186.8 186.959 185.772 186.8 186.95 185.221 180.743 180.856 181.796 182.4 182.845 183.182 183.752 184.383 184.633 185.363 185.821 186.581 187.054 187.485 188.243 188.866 189.56 190.289 191.073 191.698 192.386 193.021 194.149 194.528 195.245 195.693 196.632 197.673 200.128 200.43 201.983 202.518 202.576 202.973 201.087 203.171 207.917 210.164 210.792 209.863 207.395 204.14 204.133 204.478 205.033 206.358 207.434 207.319 206.73 206.829 208.296 210.194 211.365 212.983 215.172 214.223 212.813 211.87 211.595 210.367 211.098 214.265 216.769 219.771 216.752 212.999 217.133 218.003 213.181 213.487 219.145 215.697 213.412 214.375 216.402 217.718 217.331 217.916 218.584 218.131 216.493 217.525 217.767 216.315 216.044 216.938 216.814 216.985 217.209 217.52 218.037 218.14 217.659 217.034 217.067 217.826 218.561 219.475 220.29 221.109 221.229 221.207 220.543 220.228 222.161 223.501 221.776 219.549 219.817 219.908 220.161 220.437 221.081 223.468 223.623 220.534 220.279 220.212 220.105 220.158 222.121 226.44 226.648 226.104 223.964 222.822 224.847 228.857 226.612 222.981 222.29 226.053 223.977 224.073 224.745 225.567 226.031 221.339 222.102 219.805 218.212 217.815 217.782 220.159 219.479 217.669 217.292 217.112 216.988 216.826 218.666 217.596 216.309 216.269 216.081 215.792 215.663 215.442 215.162 214.91 215.087 215.189 214.721 214.338 214.271 214.184 214.022 214.185 218.069 218.945 215.393 213.388 213.221 213.164 213.144 213.231 212.987 212.928 212.67 212.455 212.343 212.287 212.427 215.118 216.475 215.514 212.711 212.704 212.783 212.991 213.292 215.479 214.536 213.735 213.621 213.751 213.519 213.189 213.217 214.059 212.016 211.272 210.412 210.253 209.948 209.891 210.226 210.656 211.232 211.84 212.515 212.912 213.411 213.464 213.609 213.755 213.632 213.48 213.478 213.229 213.2 213.259 213.452 213.618 214.375 212.638 212.584 215.223 220.332 225.327 226.732 226.66 224.727 220.862 228.672 228.986 227.53 225.884 222.378 215.619 214.467 213.452 213.677 213.98 215.959 215.424 213.89 214.216 214.264 218.812 220.088 220.563 220.028 219.834 220.25 219.585 219.507 218.321 217.688 217.336 217.333 217.426 217.981 218.877 221.11 220.199 221.582 220.255 218.825 220.053 220.553 219.314 216.312 213.447 213.231 213.17 213.035 212.868 212.737 212.646 212.733 212.613 212.566 212.443 212.343
169.885 169.734 169.55 169.348 169.168 168.983 168.767 168.649 168.501 168.341 168.231 168.129 168.071 167.94 167.843 168.007 168.211 168.333 168.399 168.457 168.517 168.56 168.612 168.671 168.654 168.662 168.689 168.779 168.811 168.789 168.685 168.761 168.8 168.771 168.76 168.656 168.638 168.64 168.587 168.589 168.587 168.483 168.452 168.353 168.269 168.123 168.056 168.24 168.366 168.68 168.801 168.956 169.269 169.488 169.625 169.818 169.994 170.226 170.525 170.869 173.493 176.283 177.742 177.256 177.901 178.023 176.895 175.87 176.449 178.594 180.31 180.212 180.046 181.365 182.541 181.438 180.529 181.274 181.611 182.34 182.133 184.13 184.194 184.053 183.546 183.075 185.969 186.413 186.285 186.35 187.305 187.741 183.492 182.348 181.831 184.129 184.898 185.083 184.21 184.59 184.805 185.22 186.344 186.986 186.91 187.504 188.055 188.655 189.294 189.766 190.299 191.065 191.757 192.459 192.967 193.823 194.387 195.121 195.562 196.382 196.93 197.893 199.066 200.31 201.482 200.097 200.172 200.867 203.064 207.12 209.116 210.591 209.863 208.678 204.319 204.118 204.527 205.719 207.014 208.139 208.345 207.103 206.931 207.425 209.4 210.891 212.888 213.657 212.666 211.567 211.026 210.729 211.205 212.366 214.835 216.772 214.867 214.12 212.468 214.105 212.589 212.456 212.795 215.55 213.884 214.539 217.507 220.1 220.1 219.984 217.971 216.605 217.442 216.053 215.938 215.82 215.722 216.074 216.734 217.318 217.462 217.743 218.076 218.259 218.335 218.049 217.642 218.946 219.329 218.497 219.439 220.18 220.744 221.166 220.952 220.475 220.007 221.189 223.48 220.967 219.184 219.672 219.872 220.148 220.31 220.835 222.341 222.28 220.719 220.312 220.606 221.09 220.861 225.647 228.164 228.068 225.083 223.178 222.111 228.508 232.174 231.826 224.364 224.238 225.457 220.018 220.648 222.836 221.489 223.408 220.404 219.723 218.9 217.973 217.853 218.118 218.441 217.818 217.481 217.247 217.073 216.965 216.82 216.522 216.376 216.175 215.989 215.885 215.715 215.568 215.336 215.137 214.853 217.185 218.085 215.053 214.172 214.068 213.927 213.888 214.115 216.385 217.052 215.739 213.155 212.957 212.932 212.758 212.711 212.851 212.581 212.394 212.347 212.328 212.373 212.444 212.783 213.013 212.769 212.958 212.986 213.287 215.18 214.006 213.842 213.707 213.487 213.314 213.359 212.552 212.155 211.678 211.59 210.786 210.294 210.105 210.039 209.952 210.158 210.942 211.587 212.445 212.717 212.976 213.127 213.215 213.259 213.193 213.561 213.308 213.611 214.918 213.782 213.919 213.035 212.707 215.315 219.598 212.762 214.106 221.563 220.744 224.108 226.796 225.29 225.816 226.406 224.283 227.911 227.945 225.642 222.772 220.694 218.095 214.331 215.434 213.77 216.226 218.122 217.793 217.078 218.101 219.339 219.526 220.058 219.884 220.059 220.136 220.136 219.686 218.428 218.06 218.053 218.249 218.358 217.844 218.554 219.198 220.384 221.558 219.466 218.619 218.925 219.87 216.816 215.926 213.296 212.864 212.668 212.722 212.714 212.527 212.458 212.419 212.379 212.328 212.301 212.139
169.834 169.693 169.486 169.292 169.142 168.959 168.804 168.688 168.517 168.302 168.166 168.072 167.975 167.898 167.833 167.94 168.158 168.212 168.311 168.369 168.466 168.46 168.557 168.575 168.558 168.591 168.647 168.707 168.794 168.734 168.629 168.67 168.727 168.657 168.643 168.535 168.533 168.399 168.463 168.456 168.459 168.372 168.349 168.194 168.161 167.915 167.913 168.188 168.298 168.577 168.732 169.009 169.151 169.493 169.619 169.747 169.97 170.342 171.526 173.757 175.983 178.043 178.159 177.541 178.408 178.854 179.401 178.987 179.075 178.467 179.564 179.054 179.758 182.231 183.335 181.657 181.472 182.069 182.296 182.164 182.307 183.542 183.942 184.379 184.694 184.446 185.597 186.656 187.523 187.829 188.068 188.587 184.607 185.96 186.684 187.082 188.017 187.632 188.857 186.358 185.966 187.639 192.266 192.393 188.675 188.153 188.574 188.979 189.55 190.182 190.495 191.23 191.868 192.594 192.958 193.806 194.308 195.063 195.398 196.25 196.73 197.563 198.124 198.777 199.878 199.764 200.324 201.408 204.012 205.553 207.943 208.596 208.306 206.728 204.051 204.206 204.483 206.158 207.141 208.491 209.148 208.567 207.771 207.332 208.797 210.876 212.337 212.099 211.453 210.118 209.791 210.015 211.805 213.549 215.047 217.677 215.659 215.12 214.988 216.179 212.691 212.26 212.352 212.838 213.193 214.703 218.587 220.177 219.41 218.071 217.198 215.911 216.011 215.94 215.78 215.56 215.564 215.971 216.734 217.303 217.516 217.759 218.101 218.371 218.436 218.394 218.547 221.593 221.818 218.306 218.861 219.679 220.305 221.014 220.948 220.72 220.096 220.16 221.545 219.817 219.534 220.508 222.407 220.274 220.281 220.57 221.356 220.978 220.599 220.334 220.973 223.791 227.468 224.806 229.869 230.59 224.896 223.539 224.479 224.493 230.528 232.226 229.907 229.972 227.304 220.877 219.216 222.468 222.691 223.355 218.887 218.195 218.056 218.026 218.027 218.888 219.546 217.707 217.372 217.22 217.093 216.851 216.657 216.451 216.285 216.079 215.865 215.997 216.474 215.696 215.232 215.055 214.778 215.786 217.689 214.971 214.209 214.013 213.883 213.946 213.494 213.474 213.24 213.725 212.942 212.812 212.676 212.502 212.505 212.463 212.428 212.345 212.356 212.371 212.607 212.649 212.861 212.958 213.195 213.394 213.345 213.448 214.304 214.593 212.752 212.554 212.196 212.187 212.047 211.496 210.999 210.262 209.984 209.633 209.772 209.896 210.245 210.706 210.912 211.599 212.184 212.572 212.73 212.882 212.938 212.918 212.811 212.686 212.686 212.83 213.78 217.034 217.117 218.889 212.614 212.942 215.095 218.053 212.751 220.401 226.129 223.767 226.081 226.694 224.716 225.864 223.901 216.396 218.257 220.311 222.423 222.974 227.005 225.623 218.605 217.494 215.413 215.801 221.773 221.699 220.762 219.988 219 216.234 219.655 218.846 219.92 219.812 219.277 218.675 218.241 218.199 218.305 218.501 218.406 218.102 218.589 220.159 219.437 218.187 218.399 217.99 217.528 217.477 216.51 214.842 212.997 212.686 212.513 212.45 212.601 212.421 212.334 212.297 212.221 212.01 212.034 212.02
